X	Y	Z	R	G	B	Intensity
2.838579	4.340256	-1.527714	128	128	128	0
2.971447	4.340256	-1.121223	128	128	128	0
3.614985	4.340256	-0.902854	128	128	128	0
4.243553	4.340256	-1.420553	128	128	128	0
2.178324	4.340256	-1.344647	128	128	128	0
5.105215	4.340256	-0.571396	128	128	128	0
2.477843	4.340256	-1.177286	128	128	128	0
3.753233	4.340256	-1.123938	128	128	128	0
1.476935	4.340256	-1.381012	128	128	128	0
4.462614	4.340256	-1.188529	128	128	128	0
2.984346	4.340256	-1.308015	128	128	128	0
1.923223	4.340256	-1.304480	128	128	128	0
3.243867	4.340256	-1.628422	128	128	128	0
4.410112	4.340256	-1.443499	128	128	128	0
3.132664	4.340256	-1.214321	128	128	128	0
4.230338	4.340256	-1.345724	128	128	128	0
4.628616	4.340256	-1.501824	128	128	128	0
3.469034	4.340256	-1.542108	128	128	128	0
3.786479	4.340256	-1.029795	128	128	128	0
2.638534	4.340256	-1.406703	128	128	128	0
3.151797	4.340256	-1.624635	128	128	128	0
2.657041	4.340256	-1.221644	128	128	128	0
3.700122	4.340256	-1.295552	128	128	128	0
1.293880	4.340256	-1.486831	128	128	128	0
1.995514	4.340256	-1.323628	128	128	128	0
4.676233	4.340256	-1.116774	128	128	128	0
4.940381	4.340256	-0.827277	128	128	128	0
3.166944	4.340256	-0.961500	128	128	128	0
3.983065	4.340256	-1.307870	128	128	128	0
4.638814	4.340256	-1.254901	128	128	128	0
1.301623	4.340256	-1.583379	128	128	128	0
3.860250	4.340256	-1.019525	128	128	128	0
1.136974	4.340256	-1.197828	128	128	128	0
1.505857	4.340256	-1.127271	128	128	128	0
2.952987	4.340256	-0.806091	128	128	128	0
2.344102	4.340256	-0.957087	128	128	128	0
0.468448	4.340256	-0.688939	128	128	128	0
3.380459	4.340256	-0.885613	128	128	128	0
1.042267	4.340256	-1.323267	128	128	128	0
0.687110	4.340256	-0.607950	128	128	128	0
1.145677	4.340256	-0.621988	128	128	128	0
1.941175	4.340256	-0.556594	128	128	128	0
0.354628	4.340256	-1.088232	128	128	128	0
1.628360	4.340256	-0.603509	128	128	128	0
3.170791	4.340256	-0.627480	128	128	128	0
2.695128	4.340256	-0.718787	128	128	128	0
2.441229	4.340256	-0.906308	128	128	128	0
4.236208	4.340256	-0.702215	128	128	128	0
3.473106	4.340256	-0.642857	128	128	128	0
1.991069	4.340256	-0.825114	128	128	128	0
2.996476	4.340256	-0.587337	128	128	128	0
1.596957	4.340256	-0.591384	128	128	128	0
1.625170	4.340256	-0.662011	128	128	128	0
0.303699	4.340256	-0.713087	128	128	128	0
0.965068	4.340256	-1.147615	128	128	128	0
4.328472	4.340256	-0.604271	128	128	128	0
0.488196	4.340256	-1.449298	128	128	128	0
2.199098	4.340256	-0.664397	128	128	128	0
1.095642	4.340256	-0.850691	128	128	128	0
2.935646	4.340256	-0.746756	128	128	128	0
2.962430	4.340256	-0.764294	128	128	128	0
0.257855	4.340256	-0.565192	128	128	128	0
4.260271	4.340256	-0.543105	128	128	128	0
2.030207	4.340256	-0.772005	128	128	128	0
0.356095	4.340256	-0.884499	128	128	128	0
3.242322	4.340256	-0.857423	128	128	128	0
1.180299	4.340256	-0.615950	128	128	128	0
2.509854	4.340256	-0.556610	128	128	128	0
3.821805	4.340256	-0.518591	128	128	128	0
2.340929	4.340256	-1.005813	128	128	128	0
2.079605	4.340256	-0.609731	128	128	128	0
1.373655	4.340256	-1.333876	128	128	128	0
0.828033	4.340256	-0.886155	128	128	128	0
2.753084	4.340256	-0.991881	128	128	128	0
3.561960	4.340256	-0.791759	128	128	128	0
1.891713	4.340256	-0.583764	128	128	128	0
0.890535	4.340256	-1.249248	128	128	128	0
0.812461	4.340256	-0.599362	128	128	128	0
0.759889	4.340256	-0.620913	128	128	128	0
0.142742	4.340256	-0.730132	128	128	128	0
1.982668	4.340256	-0.565868	128	128	128	0
3.549895	4.340256	-0.825700	128	128	128	0
2.098024	4.340256	-0.666003	128	128	128	0
0.128547	4.340256	-1.534142	128	128	128	0
3.869798	4.340256	-0.512471	128	128	128	0
3.814559	4.340256	-0.738749	128	128	128	0
2.510284	4.340256	-0.832810	128	128	128	0
3.143153	4.340256	-0.944039	128	128	128	0
0.352625	4.340256	-1.271797	128	128	128	0
2.985797	4.340256	-0.887268	128	128	128	0
0.398043	4.340256	-1.182164	128	128	128	0
3.956771	4.340256	-0.609253	128	128	128	0
2.001212	4.340256	-0.692821	128	128	128	0
4.237934	4.340256	-0.553889	128	128	128	0
1.210327	4.340256	-0.769990	128	128	128	0
0.993705	4.340256	-1.125724	128	128	128	0
3.083788	4.340256	-0.891525	128	128	128	0
1.758787	4.340256	-0.949600	128	128	128	0
0.467071	4.340256	-0.871906	128	128	128	0
3.365892	4.340256	-0.642243	128	128	128	0
1.549683	4.340256	-0.940566	128	128	128	0
1.629339	4.340256	-0.620295	128	128	128	0
1.281348	4.340256	-1.207920	128	128	128	0
0.345008	4.340256	-1.395931	128	128	128	0
1.806452	4.340256	-0.927430	128	128	128	0
1.204944	4.340256	-0.721199	128	128	128	0
0.651044	4.340256	-0.602119	128	128	128	0
0.207807	4.340256	-0.774662	128	128	128	0
0.878538	4.340256	-1.442020	128	128	128	0
1.422307	4.340256	-0.850265	128	128	128	0
0.721611	4.340256	-1.313994	128	128	128	0
2.507981	4.340256	-0.951903	128	128	128	0
1.821246	4.340256	-0.803112	128	128	128	0
1.292217	4.340256	-1.252728	128	128	128	0
1.108452	4.340256	-0.782465	128	128	128	0
1.354418	4.340256	-1.045678	128	128	128	0
0.099591	4.401741	-0.220649	128	128	128	0
0.099591	4.367197	0.699177	128	128	128	0
0.099591	4.396654	0.140806	128	128	128	0
0.099591	4.432777	-0.458923	128	128	128	0
0.099591	4.420913	-1.633670	128	128	128	0
0.099591	4.363009	-0.500936	128	128	128	0
0.099591	4.381190	-1.451168	128	128	128	0
0.099591	4.342896	0.101493	128	128	128	0
2.175224	4.402393	-1.656211	128	128	128	0
1.720028	4.439752	-1.656211	128	128	128	0
1.179889	4.371065	-1.656211	128	128	128	0
0.752670	4.400585	-1.656211	128	128	128	0
0.264172	4.383323	-1.656211	128	128	128	0
1.341282	4.370266	-1.656211	128	128	128	0
2.419105	4.430065	-1.656211	128	128	128	0
2.051534	4.426043	-1.656211	128	128	128	0
3.607328	4.373522	-1.656211	128	128	128	0
4.287309	4.352217	-1.656211	128	128	128	0
1.381880	4.362650	-1.656211	128	128	128	0
5.155696	4.346813	-1.656211	128	128	128	0
2.262380	4.380341	-1.656211	128	128	128	0
2.582273	4.364156	-1.656211	128	128	128	0
3.015327	4.359030	-1.656211	128	128	128	0
1.158923	4.425549	0.971640	128	128	128	0
3.126804	4.402763	0.971640	128	128	128	0
5.073807	4.411910	0.971640	128	128	128	0
5.132647	4.429172	0.971640	128	128	128	0
3.704712	4.390830	0.971640	128	128	128	0
3.628226	4.399884	0.971640	128	128	128	0
4.822623	4.425072	0.971640	128	128	128	0
3.885613	4.418467	0.971640	128	128	128	0
2.776820	4.371913	0.971640	128	128	128	0
0.790610	4.349872	0.971640	128	128	128	0
0.235997	4.358644	0.971640	128	128	128	0
0.513802	4.374339	0.971640	128	128	128	0
1.941485	4.372813	0.971640	128	128	128	0
1.670328	4.346684	0.971640	128	128	128	0
1.189679	4.356722	0.971640	128	128	128	0
0.263368	4.377102	0.941134	128	128	128	0
0.379522	4.367968	0.941134	128	128	128	0
0.641094	4.432056	0.941134	128	128	128	0
2.393472	4.437773	0.941134	128	128	128	0
3.535452	4.412497	0.941134	128	128	128	0
1.390080	4.380186	0.941134	128	128	128	0
1.047689	4.428442	0.941134	128	128	128	0
0.762209	4.387642	0.941134	128	128	128	0
4.096527	4.346342	0.941134	128	128	128	0
1.099939	4.345888	0.941134	128	128	128	0
4.084661	4.388477	0.941134	128	128	128	0
3.928810	4.405449	0.941134	128	128	128	0
3.261803	4.365634	0.941134	128	128	128	0
4.506386	4.354297	0.941134	128	128	128	0
2.296501	4.357667	0.941134	128	128	128	0
5.124519	4.432057	0.068196	128	128	128	0
5.124519	4.424229	-0.048524	128	128	128	0
5.124519	4.404897	-0.102713	128	128	128	0
5.124519	4.348630	0.018532	128	128	128	0
2.067047	4.402208	-0.511239	128	128	128	0
5.042417	4.397882	-0.511239	128	128	128	0
5.067124	4.362627	-0.511239	128	128	128	0
4.824997	4.396542	-0.511239	128	128	128	0
4.460419	4.393150	-0.511239	128	128	128	0
1.384262	4.432240	-0.511239	128	128	128	0
3.233642	4.385767	-0.511239	128	128	128	0
2.314455	4.414796	-0.511239	128	128	128	0
0.326441	4.364538	-0.511239	128	128	128	0
3.062272	4.342985	-0.511239	128	128	128	0
0.306982	4.350780	-0.511239	128	128	128	0
3.371981	4.361642	-0.511239	128	128	128	0
3.408678	4.363337	-0.511239	128	128	128	0
0.280862	4.378392	-0.511239	128	128	128	0
1.486186	4.405381	-0.511239	128	128	128	0
0.115591	4.392584	0.057359	128	128	128	0
0.115591	4.379459	-0.438155	128	128	128	0
0.115591	4.401169	0.910572	128	128	128	0
0.115591	4.388721	0.681528	128	128	128	0
5.216597	4.364336	0.971640	128	128	128	0
5.176675	-2.247126	-1.115533	128	128	128	0
5.176675	-3.661471	0.781032	128	128	128	0
5.176675	-2.741256	-0.454635	128	128	128	0
5.176675	-0.083051	-1.589016	128	128	128	0
5.176675	-4.012239	-0.353240	128	128	128	0
5.176675	-3.794068	0.135179	128	128	128	0
5.176675	-2.826809	-0.198497	128	128	128	0
5.176675	-4.266000	0.779526	128	128	128	0
5.176675	-3.666047	-0.600574	128	128	128	0
5.176675	-4.079151	-0.451311	128	128	128	0
5.176675	-0.159012	-1.367073	128	128	128	0
5.176675	-2.781801	-1.452150	128	128	128	0
5.176675	-3.486759	-0.326669	128	128	128	0
5.176675	-3.037088	-0.546897	128	128	128	0
5.176675	-2.610587	-1.064362	128	128	128	0
5.176675	-3.074650	-1.363395	128	128	128	0
5.176675	-4.377563	0.216889	128	128	128	0
5.176675	-3.794854	-0.758028	128	128	128	0
5.176675	-2.331665	-0.057673	128	128	128	0
5.176675	-3.973362	0.077421	128	128	128	0
5.176675	-3.798314	-1.612910	128	128	128	0
5.176675	-0.649405	-1.083611	128	128	128	0
5.176675	-4.368234	0.662517	128	128	128	0
5.176675	-0.698726	-1.376587	128	128	128	0
5.176675	-3.126561	-0.508897	128	128	128	0
5.176675	-1.558780	-1.040796	128	128	128	0
5.176675	-1.140165	-1.260878	128	128	128	0
5.176675	-0.825956	-1.084548	128	128	128	0
5.176675	-3.783564	-0.877964	128	128	128	0
5.176675	-0.674457	-1.597113	128	128	128	0
5.176675	-1.706131	-1.639674	128	128	128	0
5.176675	-3.567323	-1.384018	128	128	128	0
5.176675	-2.473873	-0.893319	128	128	128	0
5.176675	-4.312233	-1.286434	128	128	128	0
5.176675	-3.890035	-1.231032	128	128	128	0
5.176675	-3.262344	-1.212956	128	128	128	0
5.176675	-3.881516	-0.415976	128	128	128	0
5.176675	-2.569843	-0.897991	128	128	128	0
5.176675	-2.006689	-0.531467	128	128	128	0
5.176675	-4.185543	-1.318746	128	128	128	0
5.176675	-2.090122	-1.095807	128	128	128	0
5.176675	-3.453828	-1.355377	128	128	128	0
5.176675	-3.575629	-0.297524	128	128	128	0
5.176675	-0.923564	-1.415481	128	128	128	0
5.176675	-4.106507	-0.923596	128	128	128	0
5.176675	-0.987786	-0.768082	128	128	128	0
5.176675	-3.328819	0.343057	128	128	128	0
5.176675	-1.184998	-1.064419	128	128	128	0
5.176675	-3.997688	0.792490	128	128	128	0
5.176675	0.207126	-1.523238	128	128	128	0
5.176675	-1.156981	-1.646084	128	128	128	0
5.176675	-2.258445	-0.388234	128	128	128	0
5.176675	-4.089609	-0.466624	128	128	128	0
5.176675	-4.258474	1.096403	128	128	128	0
5.176675	-3.951922	-0.122497	128	128	128	0
5.176675	-4.030909	0.346061	128	128	128	0
5.176675	-4.144411	0.770591	128	128	128	0
5.176675	-1.719835	-0.241256	128	128	128	0
5.176675	-4.096248	-0.528760	128	128	128	0
5.176675	-3.971486	-1.590902	128	128	128	0
5.176675	-4.015147	-1.056751	128	128	128	0
5.176675	-4.017276	0.798263	128	128	128	0
5.176675	-2.303328	-1.137550	128	128	128	0
5.176675	-3.461683	-0.693785	128	128	128	0
5.176675	-3.582332	-1.258968	128	128	128	0
5.176675	-3.655207	-0.671025	128	128	128	0
5.176675	-2.471066	-0.833354	128	128	128	0
5.176675	-3.599510	-0.109795	128	128	128	0
5.176675	-3.098707	-0.939486	128	128	128	0
5.176675	-0.913773	-1.149647	128	128	128	0
5.176675	-3.167927	-0.129427	128	128	128	0
5.176675	-1.347616	-1.575308	128	128	128	0
5.176675	-4.306945	-0.676446	128	128	128	0
5.176675	-1.571296	-1.419747	128	128	128	0
5.176675	-3.802104	-0.872119	128	128	128	0
5.176675	-3.533624	0.538758	128	128	128	0
5.176675	-1.633971	-1.479878	128	128	128	0
5.176675	-4.132418	0.619327	128	128	128	0
5.176675	-4.328302	-1.545723	128	128	128	0
5.176675	-3.190916	-0.038400	128	128	128	0
5.176675	-2.117795	-0.739553	128	128	128	0
5.176675	-2.864983	-1.579407	128	128	128	0
5.176675	-1.994905	-1.508703	128	128	128	0
5.176675	-3.962180	-1.335858	128	128	128	0
5.176675	-3.509599	-1.230989	128	128	128	0
5.176675	-1.852209	-1.429141	128	128	128	0
5.176675	-3.542285	-0.841469	128	128	128	0
5.176675	-2.593492	0.266038	128	128	128	0
5.176675	-3.410953	-1.482236	128	128	128	0
5.176675	0.125753	-1.215242	128	128	128	0
5.176675	-0.811703	-0.872132	128	128	128	0
5.176675	-3.222417	-1.237489	128	128	128	0
5.176675	-3.348687	-1.190045	128	128	128	0
5.176675	-1.770287	-1.532478	128	128	128	0
5.176675	-3.524850	0.729982	128	128	128	0
5.176675	-3.753729	-1.622788	128	128	128	0
5.176675	-3.246390	-0.285441	128	128	128	0
5.176675	-3.019434	-0.416926	128	128	128	0
5.176675	-4.078425	-0.281332	128	128	128	0
5.176675	-4.060807	-0.910981	128	128	128	0
5.176675	-0.849071	-1.205209	128	128	128	0
5.176675	-1.473766	-0.379451	128	128	128	0
5.176675	-1.116297	-1.406007	128	128	128	0
5.176675	-1.478514	-1.588017	128	128	128	0
5.176675	-2.336233	-0.966607	128	128	128	0
5.176675	-0.815119	-1.584239	128	128	128	0
5.176675	-2.768425	0.258155	128	128	128	0
5.176675	-1.177788	-1.503157	128	128	128	0
5.176675	-3.569024	-0.662327	128	128	128	0
5.176675	-1.087376	-1.130152	128	128	128	0
5.176675	-1.341465	-0.925000	128	128	128	0
5.176675	-0.543567	-0.967002	128	128	128	0
5.176675	-4.342407	-0.944828	128	128	128	0
5.176675	-0.127005	-1.602607	128	128	128	0
5.176675	-3.408709	-0.198043	128	128	128	0
5.176675	0.344783	-1.366655	128	128	128	0
5.176675	-1.353871	-0.742610	128	128	128	0
5.176675	-1.844927	-0.415150	128	128	128	0
5.176675	-2.554590	-0.229337	128	128	128	0
5.176675	-3.179033	-0.744462	128	128	128	0
5.176675	-3.229582	-1.171456	128	128	128	0
5.176675	-3.096288	-1.038912	128	128	128	0
5.176675	-1.892201	-1.024550	128	128	128	0
5.176675	-2.278838	-1.251314	128	128	128	0
5.176675	-2.844027	0.393424	128	128	128	0
5.176675	-1.756718	-0.317803	128	128	128	0
5.176675	-3.397927	-0.275666	128	128	128	0
5.176675	-3.919227	0.052060	128	128	128	0
5.176675	-1.767333	-0.710995	128	128	128	0
5.176675	-2.477181	0.080042	128	128	128	0
5.176675	-4.078808	-0.861373	128	128	128	0
5.176675	-2.696399	-1.181868	128	128	128	0
5.176675	-2.924155	-0.963220	128	128	128	0
5.176675	-3.400654	-1.460525	128	128	128	0
5.176675	-2.067479	-1.070859	128	128	128	0
5.176675	-4.339324	-0.431084	128	128	128	0
5.176675	-4.190334	-0.417649	128	128	128	0
5.176675	-3.569949	0.599502	128	128	128	0
5.176675	-3.990644	0.509468	128	128	128	0
5.176675	-4.375828	1.009577	128	128	128	0
5.176675	-2.584358	-0.753489	128	128	128	0
5.176675	-3.748165	-0.445214	128	128	128	0
5.176675	0.356851	-1.629608	128	128	128	0
5.176675	-3.250972	-1.552383	128	128	128	0
5.176675	-1.930211	-0.942851	128	128	128	0
5.176675	-2.214261	-0.557068	128	128	128	0
5.176675	-0.336296	-1.572916	128	128	128	0
5.176675	-1.577987	-1.415071	128	128	128	0
5.176675	-4.170881	-1.069700	128	128	128	0
5.176675	-2.990242	-1.286087	128	128	128	0
5.176675	-2.051278	-0.652584	128	128	128	0
5.176675	-0.503425	-0.939463	128	128	128	0
5.176675	-3.946787	0.855345	128	128	128	0
5.176675	-3.119174	0.313127	128	128	128	0
5.176675	-2.058443	-0.669633	128	128	128	0
5.176675	-2.470012	-0.923156	128	128	128	0
5.176675	-0.873197	-0.910552	128	128	128	0
5.176675	-1.823778	-1.474467	128	128	128	0
5.176675	-3.182557	0.008442	128	128	128	0
5.176675	-0.028721	-1.562293	128	128	128	0
5.176675	-2.312324	-1.601694	128	128	128	0
5.176675	-4.000799	-0.940967	128	128	128	0
5.176675	-1.845713	-0.807926	128	128	128	0
5.176675	-2.757658	-0.564225	128	128	128	0
5.176675	-4.199479	-1.027230	128	128	128	0
5.176675	-3.190486	-1.239421	128	128	128	0
5.176675	-0.566554	-0.905470	128	128	128	0
5.176675	-2.318313	0.041135	128	128	128	0
5.176675	-1.457698	-0.824290	128	128	128	0
5.176675	-3.899220	-1.219204	128	128	128	0
5.176675	-4.188760	-0.997001	128	128	128	0
5.176675	-2.525845	-1.260743	128	128	128	0
5.176675	-0.435141	-0.923428	128	128	128	0
5.176675	-2.499239	-0.399749	128	128	128	0
5.176675	-1.993700	-1.002453	128	128	128	0
5.176675	-2.658491	0.108060	128	128	128	0
5.176675	-1.592907	-1.052566	128	128	128	0
5.176675	-1.851935	-1.508021	128	128	128	0
5.176675	-3.305447	-1.212482	128	128	128	0
5.176675	-3.141520	-0.782257	128	128	128	0
5.176675	-2.760304	-1.420189	128	128	128	0
5.176675	-3.332943	-1.513885	128	128	128	0
5.176675	-4.178651	-1.534776	128	128	128	0
5.176675	-0.248564	-1.647975	128	128	128	0
5.176675	-3.445461	0.612450	128	128	128	0
5.176675	-0.742563	-1.014876	128	128	128	0
5.176675	-0.328680	-1.377193	128	128	128	0
5.176675	-4.360645	-0.524904	128	128	128	0
5.176675	-3.318594	-0.189710	128	128	128	0
5.176675	-2.775181	-0.426893	128	128	128	0
5.176675	-3.629568	-0.576255	128	128	128	0
5.176675	-4.107480	1.062714	128	128	128	0
5.176675	-3.813147	0.288845	128	128	128	0
5.176675	-2.544746	-0.049656	128	128	128	0
5.176675	-2.675779	-0.037159	128	128	128	0
5.176675	-2.504813	-1.621180	128	128	128	0
5.176675	-3.691298	-0.873260	128	128	128	0
5.176675	-1.224032	-1.273096	128	128	128	0
5.176675	-3.428252	-1.586143	128	128	128	0
5.176675	-0.335190	-1.142795	128	128	128	0
5.176675	-2.883472	-0.633873	128	128	128	0
5.176675	-2.656530	-1.254394	128	128	128	0
5.176675	-3.943473	-0.720880	128	128	128	0
5.176675	-3.308684	0.078447	128	128	128	0
5.176675	-3.004253	-1.104130	128	128	128	0
5.176675	-2.765800	-0.789441	128	128	128	0
5.176675	-4.348440	0.202747	128	128	128	0
5.176675	-4.319661	-0.444730	128	128	128	0
5.176675	-0.683387	-0.927374	128	128	128	0
5.176675	-3.536667	0.318509	128	128	128	0
5.176675	-3.620388	0.157106	128	128	128	0
5.176675	-0.172597	-1.182226	128	128	128	0
5.176675	-2.901797	-0.679346	128	128	128	0
5.176675	-4.385514	0.029102	128	128	128	0
5.176675	-2.101088	-0.094597	128	128	128	0
5.176675	-3.961096	-0.702833	128	128	128	0
5.176675	-1.237682	-0.593746	128	128	128	0
5.176675	-2.613064	-1.618548	128	128	128	0
5.176675	-1.596135	-0.425896	128	128	128	0
5.176675	-4.183509	-1.221884	128	128	128	0
5.176675	-0.477164	-0.868239	128	128	128	0
5.176675	-3.619400	-1.424711	128	128	128	0
5.176675	-3.088984	-0.412547	128	128	128	0
5.176675	-2.210107	-1.189720	128	128	128	0
5.176675	-3.848789	-0.296880	128	128	128	0
5.176675	-3.609861	-0.142393	128	128	128	0
5.176675	-4.339609	0.256898	128	128	128	0
5.176675	-1.977991	-0.923444	128	128	128	0
5.176675	-4.048654	-1.087172	128	128	128	0
5.176675	-4.027115	0.248499	128	128	128	0
5.176675	-3.900386	-1.325934	128	128	128	0
5.176675	-3.692023	0.054383	128	128	128	0
5.176675	-2.323036	0.619209	128	128	128	0
5.176675	0.471889	0.520812	128	128	128	0
5.176675	0.229180	-0.168476	128	128	128	0
5.176675	-1.044383	0.279215	128	128	128	0
5.176675	0.419241	0.199903	128	128	128	0
5.176675	0.697278	-0.385341	128	128	128	0
5.176675	-3.844431	1.162697	128	128	128	0
5.176675	-1.426973	0.661285	128	128	128	0
5.176675	-0.447367	0.686721	128	128	128	0
5.176675	-0.419670	-0.090802	128	128	128	0
5.176675	-1.397456	0.411035	128	128	128	0
5.176675	-0.340055	0.405876	128	128	128	0
5.176675	-3.274446	1.146622	128	128	128	0
5.176675	0.323104	1.035374	128	128	128	0
5.176675	-1.777293	1.189586	128	128	128	0
5.176675	-1.974807	0.126926	128	128	128	0
5.176675	-0.266502	1.089756	128	128	128	0
5.176675	-1.669291	0.058613	128	128	128	0
5.176675	0.191112	-0.324808	128	128	128	0
5.176675	-1.844767	0.485152	128	128	128	0
5.176675	0.246315	-1.175349	128	128	128	0
5.176675	-0.878136	1.221605	128	128	128	0
5.176675	-2.010285	0.536174	128	128	128	0
5.176675	-0.239151	0.339117	128	128	128	0
5.176675	-2.390879	0.569071	128	128	128	0
5.176675	-0.613555	1.172004	128	128	128	0
5.176675	-2.952117	0.915765	128	128	128	0
5.176675	-0.213599	-0.902573	128	128	128	0
5.176675	-3.236391	0.655139	128	128	128	0
5.176675	0.305413	-0.660943	128	128	128	0
5.176675	0.332158	0.430209	128	128	128	0
5.176675	-1.697348	-0.138749	128	128	128	0
5.176675	-1.001936	1.089193	128	128	128	0
5.176675	1.003759	0.864915	128	128	128	0
5.176675	0.249966	0.055811	128	128	128	0
5.176675	-0.009706	-0.146519	128	128	128	0
5.176675	-1.062948	0.835243	128	128	128	0
5.176675	-1.350459	-0.072594	128	128	128	0
5.176675	-1.295705	-0.276106	128	128	128	0
5.176675	-1.964903	1.246980	128	128	128	0
5.176675	-1.395267	0.796480	128	128	128	0
5.176675	-1.017244	0.924491	128	128	128	0
5.176675	0.208470	0.835491	128	128	128	0
5.176675	-1.125213	0.928121	128	128	128	0
5.176675	0.801711	0.154693	128	128	128	0
5.176675	-1.261203	0.679123	128	128	128	0
5.176675	-0.632114	-0.176921	128	128	128	0
5.176675	0.085605	0.386805	128	128	128	0
5.176675	-1.599068	0.169298	128	128	128	0
5.176675	-2.231282	0.532363	128	128	128	0
5.176675	-1.915427	1.082754	128	128	128	0
5.176675	-1.693877	-0.109558	128	128	128	0
5.176675	-1.594450	-0.091644	128	128	128	0
5.176675	-1.617334	0.856493	128	128	128	0
5.176675	-0.309352	-0.818797	128	128	128	0
5.176675	-1.083582	0.074344	128	128	128	0
5.176675	1.013213	1.215142	128	128	128	0
5.176675	0.766730	0.569452	128	128	128	0
5.176675	-3.137548	1.066211	128	128	128	0
5.176675	0.614527	-1.087510	128	128	128	0
5.176675	-2.150211	1.093620	128	128	128	0
5.176675	0.078630	-0.488908	128	128	128	0
5.176675	-0.599053	1.159341	128	128	128	0
5.176675	-0.558112	0.120685	128	128	128	0
5.176675	-2.211044	0.306949	128	128	128	0
5.176675	-0.686734	-0.401261	128	128	128	0
5.176675	-0.265677	0.354796	128	128	128	0
5.176675	-3.056113	0.823697	128	128	128	0
5.176675	0.607106	-0.800878	128	128	128	0
5.176675	0.218118	0.544253	128	128	128	0
5.176675	-2.067364	1.123147	128	128	128	0
5.176675	0.242897	0.079128	128	128	128	0
5.176675	0.304507	-0.079229	128	128	128	0
5.176675	-2.540185	0.926169	128	128	128	0
5.176675	0.278467	-0.382182	128	128	128	0
5.176675	0.562074	-0.665648	128	128	128	0
5.176675	0.150733	-1.100511	128	128	128	0
5.176675	-0.950595	0.632047	128	128	128	0
5.176675	-1.415003	0.812891	128	128	128	0
5.176675	-3.468605	0.967238	128	128	128	0
5.176675	-0.553964	-0.061229	128	128	128	0
5.176675	-1.300224	-0.299897	128	128	128	0
5.176675	-3.073764	1.162512	128	128	128	0
5.176675	-2.503692	1.103250	128	128	128	0
5.176675	-1.087827	0.175070	128	128	128	0
5.176675	0.687116	-0.811426	128	128	128	0
5.176675	-3.713433	1.144299	128	128	128	0
5.176675	-3.483400	1.049534	128	128	128	0
5.176675	-1.462663	-0.020107	128	128	128	0
5.176675	0.891826	0.905401	128	128	128	0
5.176675	0.470375	0.289866	128	128	128	0
5.176675	0.028774	-0.260488	128	128	128	0
5.176675	0.189056	-0.921643	128	128	128	0
5.176675	-2.126174	0.271852	128	128	128	0
5.176675	-1.147139	-0.214389	128	128	128	0
5.176675	-0.965329	0.758785	128	128	128	0
5.176675	-1.780148	1.214757	128	128	128	0
5.176675	-3.491057	0.905520	128	128	128	0
5.176675	-1.105406	0.646775	128	128	128	0
5.176675	-1.105618	0.654651	128	128	128	0
5.176675	-2.095625	0.324523	128	128	128	0
5.176675	-3.273099	0.757881	128	128	128	0
5.176675	-1.475652	0.133829	128	128	128	0
5.176675	0.955322	0.881717	128	128	128	0
5.176675	-1.448642	-0.228179	128	128	128	0
5.176675	0.441575	-1.053883	128	128	128	0
5.176675	0.258383	-0.940016	128	128	128	0
5.176675	-3.833272	1.083376	128	128	128	0
5.176675	-3.098826	1.078346	128	128	128	0
5.176675	-1.333044	0.663132	128	128	128	0
5.176675	0.149866	-1.067439	128	128	128	0
5.176675	-3.000366	0.773237	128	128	128	0
5.176675	0.428964	-0.511569	128	128	128	0
5.176675	-3.232461	1.095183	128	128	128	0
5.176675	-0.806108	-0.518193	128	128	128	0
5.176675	-0.217082	0.609812	128	128	128	0
5.176675	-1.773182	-0.088121	128	128	128	0
5.176675	-0.680230	-0.144645	128	128	128	0
5.176675	0.505770	-0.845360	128	128	128	0
5.176675	-2.731442	0.545445	128	128	128	0
5.176675	0.354463	1.201026	128	128	128	0
5.176675	-2.108265	1.077822	128	128	128	0
5.176675	0.469490	0.029996	128	128	128	0
5.176675	-0.299741	0.046073	128	128	128	0
5.176675	-3.757359	1.146706	128	128	128	0
5.176675	-0.605158	-0.642999	128	128	128	0
5.176675	-1.916852	0.472231	128	128	128	0
5.176675	-1.365061	0.662632	128	128	128	0
5.176675	0.243029	0.981701	128	128	128	0
5.176675	-2.178940	1.136518	128	128	128	0
5.176675	0.395900	0.499648	128	128	128	0
5.176675	1.008877	-1.127743	128	128	128	0
5.176675	0.421524	1.049253	128	128	128	0
5.176675	-1.116941	0.892861	128	128	128	0
5.176675	-2.955731	0.682982	128	128	128	0
5.176675	-2.561389	1.102928	128	128	128	0
5.176675	-3.931084	1.216423	128	128	128	0
5.176675	-0.115992	0.404115	128	128	128	0
5.176675	-1.624031	1.087069	128	128	128	0
5.176675	-1.017024	0.774504	128	128	128	0
5.176675	-3.686273	0.879171	128	128	128	0
5.176675	-3.663907	1.091761	128	128	128	0
5.176675	-0.175266	-0.933970	128	128	128	0
5.176675	0.970774	-0.924296	128	128	128	0
5.176675	-4.292281	1.235663	128	128	128	0
5.176675	-3.223882	1.102326	128	128	128	0
5.176675	-0.111016	0.882657	128	128	128	0
5.176675	0.606715	-1.324325	128	128	128	0
5.176675	-1.265458	0.974042	128	128	128	0
5.176675	0.331473	0.474410	128	128	128	0
5.176675	0.634948	-1.090875	128	128	128	0
5.176675	-2.498999	1.016509	128	128	128	0
5.176675	-0.760596	0.046473	128	128	128	0
5.176675	0.092214	0.398998	128	128	128	0
5.176675	0.052250	-0.334599	128	128	128	0
5.176675	-0.305217	-0.323851	128	128	128	0
5.176675	-1.484989	0.204388	128	128	128	0
5.176675	0.523919	0.706843	128	128	128	0
5.176675	-0.957955	0.809623	128	128	128	0
5.176675	0.518699	0.276049	128	128	128	0
5.176675	0.587401	0.379311	128	128	128	0
5.176675	-2.498918	1.104038	128	128	128	0
5.176675	-1.498086	0.613493	128	128	128	0
5.176675	-0.019159	1.192337	128	128	128	0
5.176675	0.088671	-0.993930	128	128	128	0
5.176675	-0.992050	0.945033	128	128	128	0
5.176675	-1.197803	0.970420	128	128	128	0
5.176675	-0.517815	0.401487	128	128	128	0
5.176675	-1.834742	1.167867	128	128	128	0
5.176675	0.186624	0.648384	128	128	128	0
5.176675	0.665746	-0.242673	128	128	128	0
5.176675	0.477883	1.190713	128	128	128	0
5.176675	0.990067	-1.412217	128	128	128	0
5.176675	-1.303878	0.841611	128	128	128	0
5.176675	-0.497889	0.746183	128	128	128	0
5.176675	0.524838	-0.266868	128	128	128	0
5.176675	-2.481502	0.923218	128	128	128	0
5.176675	0.109222	0.303208	128	128	128	0
5.176675	-0.989767	0.404799	128	128	128	0
5.176675	-0.795871	0.776080	128	128	128	0
5.176675	-0.687032	0.426654	128	128	128	0
5.176675	-0.000066	1.012825	128	128	128	0
5.176675	-0.913310	1.086000	128	128	128	0
5.176675	-0.011853	0.968533	128	128	128	0
5.176675	-0.386600	1.088036	128	128	128	0
5.176675	-0.144682	0.140512	128	128	128	0
5.176675	-1.252217	0.976828	128	128	128	0
5.176675	0.372112	-0.289254	128	128	128	0
5.176675	-0.875791	1.041766	128	128	128	0
5.176675	-0.280372	0.312554	128	128	128	0
5.176675	-0.245740	-0.947363	128	128	128	0
5.176675	0.757085	-1.349667	128	128	128	0
5.176675	0.749941	-0.089484	128	128	128	0
5.176675	-1.034001	0.170722	128	128	128	0
5.176675	0.550605	-0.651172	128	128	128	0
5.176675	-4.154569	1.191396	128	128	128	0
5.176675	-1.212066	-0.148714	128	128	128	0
5.176675	-2.086184	0.830476	128	128	128	0
5.176675	0.987806	-0.866343	128	128	128	0
5.176675	-0.213238	0.672222	128	128	128	0
5.176675	-2.367005	1.030712	128	128	128	0
5.176675	-0.473664	-0.174991	128	128	128	0
5.176675	0.554444	0.083703	128	128	128	0
5.176675	-3.026599	1.119039	128	128	128	0
5.176675	-0.291655	-0.825556	128	128	128	0
5.176675	0.649760	0.062087	128	128	128	0
5.176675	-1.126783	0.715446	128	128	128	0
5.176675	-0.422480	0.832631	128	128	128	0
5.176675	-2.083637	1.163408	128	128	128	0
5.176675	-2.071893	0.584694	128	128	128	0
5.176675	-1.961477	0.381504	128	128	128	0
5.176675	-2.500862	0.255076	128	128	128	0
5.176675	0.590069	-1.147272	128	128	128	0
5.176675	-0.573849	0.810294	128	128	128	0
5.176675	-0.609082	-0.753014	128	128	128	0
5.176675	-0.877454	1.122703	128	128	128	0
5.176675	-1.073415	0.470317	128	128	128	0
5.176675	0.451952	-0.134468	128	128	128	0
5.176675	-3.732551	0.951269	128	128	128	0
5.176675	-2.879851	0.884836	128	128	128	0
5.176675	0.906294	0.418468	128	128	128	0
5.176675	-1.517072	0.793973	128	128	128	0
5.176675	0.205876	-0.519788	128	128	128	0
5.176675	-1.229918	0.070316	128	128	128	0
5.176675	0.902740	0.613741	128	128	128	0
5.176675	0.483719	0.138177	128	128	128	0
5.176675	0.498136	0.921677	128	128	128	0
5.176675	0.508886	-0.451118	128	128	128	0
5.176675	-1.883197	0.168484	128	128	128	0
5.176675	-3.569687	1.220933	128	128	128	0
5.176675	-0.394480	0.187970	128	128	128	0
5.176675	-1.660519	0.441304	128	128	128	0
5.076675	-0.721095	0.577065	128	128	128	0
5.076675	0.505049	0.161136	128	128	128	0
5.076675	0.377003	1.185285	128	128	128	0
5.076675	-0.508347	1.141463	128	128	128	0
5.076675	0.601425	-0.435374	128	128	128	0
5.076675	-2.780698	0.867679	128	128	128	0
5.076675	-1.050374	0.982687	128	128	128	0
5.076675	-1.666963	0.434005	128	128	128	0
5.076675	0.787278	-0.589321	128	128	128	0
5.076675	0.813463	1.174221	128	128	128	0
5.076675	-0.761235	-0.289812	128	128	128	0
5.076675	-1.235917	0.860973	128	128	128	0
5.076675	-1.120212	0.403183	128	128	128	0
5.076675	-1.146600	1.220290	128	128	128	0
5.076675	-2.848851	0.987540	128	128	128	0
5.076675	-0.995351	-0.238859	128	128	128	0
5.076675	-1.367877	0.803017	128	128	128	0
5.076675	0.375771	-1.126079	128	128	128	0
5.076675	-0.884863	-0.421574	128	128	128	0
5.076675	-2.598600	0.350911	128	128	128	0
5.076675	0.244569	0.321587	128	128	128	0
5.076675	0.751749	0.476308	128	128	128	0
5.076675	-0.117331	0.487202	128	128	128	0
5.076675	-1.032921	1.238850	128	128	128	0
5.076675	0.563810	-0.919183	128	128	128	0
5.076675	0.122459	0.732394	128	128	128	0
5.076675	-0.310242	-0.730355	128	128	128	0
5.076675	-0.639626	1.222428	128	128	128	0
5.076675	-1.069830	-0.025599	128	128	128	0
5.076675	0.261477	-0.022888	128	128	128	0
5.076675	0.050100	0.614109	128	128	128	0
5.076675	0.627748	-0.559972	128	128	128	0
5.076675	-2.496250	0.839685	128	128	128	0
5.076675	-2.632529	0.472848	128	128	128	0
5.076675	-1.103647	0.783137	128	128	128	0
5.076675	-1.035781	-0.445485	128	128	128	0
5.076675	-0.292248	-0.159853	128	128	128	0
5.076675	-0.910337	0.119793	128	128	128	0
5.076675	0.522951	-1.151727	128	128	128	0
5.076675	-0.942311	-0.580260	128	128	128	0
5.076675	-0.899549	0.165815	128	128	128	0
5.076675	0.341455	-0.479036	128	128	128	0
5.076675	-0.994264	0.797437	128	128	128	0
5.076675	0.293885	0.886428	128	128	128	0
5.076675	-0.235077	0.035455	128	128	128	0
5.076675	-3.648500	0.913148	128	128	128	0
5.076675	-1.927496	1.031346	128	128	128	0
5.076675	-0.291018	0.116447	128	128	128	0
5.076675	-1.853388	0.985750	128	128	128	0
5.076675	0.952756	1.060818	128	128	128	0
5.076675	0.207253	-0.600489	128	128	128	0
5.076675	0.394327	-0.583701	128	128	128	0
5.076675	-2.803325	1.195578	128	128	128	0
5.076675	-1.045511	-0.245296	128	128	128	0
5.076675	-0.372443	0.220540	128	128	128	0
5.076675	-2.561433	1.253428	128	128	128	0
5.076675	-2.267818	0.244300	128	128	128	0
5.076675	0.166763	-1.185622	128	128	128	0
5.076675	0.427340	-0.315605	128	128	128	0
5.076675	-2.703202	0.907425	128	128	128	0
5.076675	-0.001822	0.767253	128	128	128	0
5.076675	-0.939946	0.466470	128	128	128	0
5.076675	0.073775	0.624351	128	128	128	0
5.076675	-0.324386	0.372249	128	128	128	0
5.076675	-2.718554	0.937640	128	128	128	0
5.076675	-1.366765	0.081213	128	128	128	0
5.076675	-0.784247	1.006435	128	128	128	0
5.076675	0.344338	-1.171107	128	128	128	0
5.076675	0.173650	-1.137165	128	128	128	0
5.076675	0.457418	-0.832416	128	128	128	0
5.076675	0.745240	-1.322668	128	128	128	0
5.076675	-0.364471	0.215008	128	128	128	0
5.076675	-1.197529	0.305930	128	128	128	0
5.076675	0.134885	0.657809	128	128	128	0
5.076675	0.453408	0.578910	128	128	128	0
5.076675	-0.338032	-0.380054	128	128	128	0
5.076675	-0.243359	0.223882	128	128	128	0
5.076675	0.571941	0.497919	128	128	128	0
5.076675	0.500236	0.690894	128	128	128	0
5.076675	-0.440522	0.260493	128	128	128	0
5.076675	0.242625	1.219515	128	128	128	0
5.076675	0.751380	-0.066697	128	128	128	0
5.076675	-1.032101	1.005314	128	128	128	0
5.076675	-1.428573	0.024486	128	128	128	0
5.076675	0.613709	-0.693789	128	128	128	0
5.076675	-0.410680	-0.406326	128	128	128	0
5.076675	0.762586	0.828522	128	128	128	0
5.076675	-2.719237	0.482238	128	128	128	0
5.076675	0.650301	-0.603192	128	128	128	0
5.076675	0.685805	-0.814425	128	128	128	0
5.076675	0.920497	-1.442468	128	128	128	0
5.076675	-1.064661	0.183171	128	128	128	0
5.076675	0.498506	-0.166446	128	128	128	0
5.076675	0.421316	-0.586819	128	128	128	0
5.076675	0.141774	-0.689207	128	128	128	0
5.076675	-2.508411	0.538256	128	128	128	0
5.076675	0.943166	-0.306217	128	128	128	0
5.076675	-1.908238	1.221917	128	128	128	0
5.076675	0.316568	0.803015	128	128	128	0
5.076675	0.306608	1.050590	128	128	128	0
5.076675	0.238593	1.031393	128	128	128	0
5.076675	-1.729414	0.808538	128	128	128	0
5.076675	-3.304207	0.740783	128	128	128	0
5.076675	0.608053	0.762840	128	128	128	0
5.076675	0.536372	0.736652	128	128	128	0
5.076675	0.770383	-1.203338	128	128	128	0
5.076675	0.691053	-0.606085	128	128	128	0
5.076675	0.804920	0.556056	128	128	128	0
5.076675	-2.144356	0.097852	128	128	128	0
5.076675	-0.089525	-0.746316	128	128	128	0
5.076675	-2.076152	1.155667	128	128	128	0
5.076675	0.267255	0.440186	128	128	128	0
5.076675	0.641308	-0.427887	128	128	128	0
5.076675	-0.580067	1.128838	128	128	128	0
5.076675	-1.034047	0.110828	128	128	128	0
5.076675	0.644250	-1.344080	128	128	128	0
5.076675	-0.618812	1.153161	128	128	128	0
5.076675	0.668825	0.274699	128	128	128	0
5.076675	-2.830639	0.724246	128	128	128	0
5.076675	-2.946965	1.190615	128	128	128	0
5.076675	-0.078590	-0.434408	128	128	128	0
5.076675	-1.495620	-0.266972	128	128	128	0
5.076675	0.744266	-0.685907	128	128	128	0
5.076675	-1.910672	1.076175	128	128	128	0
5.076675	-0.811519	0.397495	128	128	128	0
5.076675	-0.181029	0.137901	128	128	128	0
5.076675	0.353102	0.292687	128	128	128	0
5.076675	-1.175491	0.492995	128	128	128	0
5.076675	-2.636255	0.674940	128	128	128	0
5.076675	0.996975	-0.835689	128	128	128	0
5.076675	-0.858548	1.086581	128	128	128	0
5.076675	-0.671435	0.115177	128	128	128	0
5.076675	-1.662490	0.187974	128	128	128	0
5.076675	0.693164	-0.115362	128	128	128	0
5.076675	0.274035	-0.353869	128	128	128	0
5.076675	0.864288	0.971731	128	128	128	0
5.076675	-1.484935	0.545775	128	128	128	0
5.076675	-0.986180	1.150631	128	128	128	0
5.076675	0.020730	-0.046650	128	128	128	0
5.076675	-1.689132	0.803806	128	128	128	0
5.076675	0.924817	-0.514757	128	128	128	0
5.076675	-0.714043	0.025979	128	128	128	0
5.076675	-1.244453	-0.239589	128	128	128	0
5.076675	-1.923895	0.243163	128	128	128	0
5.076675	-1.632527	0.575223	128	128	128	0
5.076675	-1.734999	1.123802	128	128	128	0
5.076675	0.650900	0.990432	128	128	128	0
5.076675	-1.113412	0.260095	128	128	128	0
5.076675	-0.358085	0.887079	128	128	128	0
5.076675	0.954026	-0.240303	128	128	128	0
5.076675	-0.954786	0.843490	128	128	128	0
5.076675	-0.958740	0.625143	128	128	128	0
5.076675	-1.983927	0.025667	128	128	128	0
5.076675	-0.842372	-0.514875	128	128	128	0
5.076675	-3.428557	0.972968	128	128	128	0
5.076675	1.017003	-0.233297	128	128	128	0
5.076675	-3.089835	0.824631	128	128	128	0
5.076675	0.660323	-0.492273	128	128	128	0
5.076675	-0.373029	-0.798039	128	128	128	0
5.076675	-0.793727	0.502756	128	128	128	0
5.076675	0.160378	0.651558	128	128	128	0
5.076675	-2.969600	1.089503	128	128	128	0
5.076675	-3.491988	1.244823	128	128	128	0
5.076675	-1.864380	-0.002977	128	128	128	0
5.076675	-0.343452	1.068776	128	128	128	0
5.076675	-0.412146	-0.850440	128	128	128	0
5.076675	0.046374	0.570208	128	128	128	0
5.076675	0.671579	0.265601	128	128	128	0
5.076675	0.466058	-1.343646	128	128	128	0
5.076675	-2.033489	0.493846	128	128	128	0
5.076675	-0.558537	0.050539	128	128	128	0
5.076675	0.329030	-0.412045	128	128	128	0
5.076675	-2.099251	1.054273	128	128	128	0
5.076675	0.271820	0.339857	128	128	128	0
5.076675	-0.247891	1.172721	128	128	128	0
5.076675	-0.165063	0.354067	128	128	128	0
5.076675	-1.496607	0.845187	128	128	128	0
5.076675	-1.735028	0.144069	128	128	128	0
5.076675	-1.147250	-0.129146	128	128	128	0
5.076675	-1.320319	-0.074876	128	128	128	0
5.076675	-3.846343	1.043044	128	128	128	0
5.076675	0.645245	-0.885922	128	128	128	0
5.076675	-0.842968	-0.524428	128	128	128	0
5.076675	0.525685	0.418122	128	128	128	0
5.076675	-1.708292	0.634821	128	128	128	0
5.076675	0.260391	1.095139	128	128	128	0
5.076675	-1.039375	0.053628	128	128	128	0
5.076675	-0.594999	0.466242	128	128	128	0
5.076675	-0.106756	-0.921163	128	128	128	0
5.076675	-2.213674	0.487203	128	128	128	0
5.076675	-3.506834	0.917111	128	128	128	0
5.076675	-0.740064	-0.340013	128	128	128	0
5.076675	-0.685627	0.005505	128	128	128	0
5.076675	0.204920	-0.188171	128	128	128	0
5.076675	0.316721	0.429205	128	128	128	0
5.076675	-1.354460	0.972580	128	128	128	0
5.076675	0.444058	-0.131760	128	128	128	0
5.076675	0.842158	-0.681148	128	128	128	0
5.076675	-2.286327	0.176521	128	128	128	0
5.076675	-2.958095	0.740673	128	128	128	0
5.076675	-1.204335	0.733777	128	128	128	0
5.076675	-0.839225	0.930378	128	128	128	0
5.076675	-4.110182	1.164631	128	128	128	0
5.076675	0.678824	-0.917188	128	128	128	0
5.076675	0.606406	-0.235510	128	128	128	0
5.076675	-2.192783	0.927619	128	128	128	0
5.076675	0.697338	-0.844185	128	128	128	0
5.076675	-4.025848	1.228500	128	128	128	0
5.076675	-2.020954	0.012906	128	128	128	0
5.076675	-1.073297	0.836554	128	128	128	0
5.076675	-0.910732	-0.394088	128	128	128	0
5.076675	-1.091050	-0.360836	128	128	128	0
5.076675	0.060729	0.424800	128	128	128	0
5.076675	-2.829120	0.688217	128	128	128	0
5.076675	0.492570	0.950827	128	128	128	0
5.076675	0.907211	0.211351	128	128	128	0
5.076675	0.553513	-0.354291	128	128	128	0
5.076675	-3.428631	0.789821	128	128	128	0
5.076675	-1.280537	-0.343183	128	128	128	0
5.076675	0.938431	0.005244	128	128	128	0
5.076675	-2.391833	0.570404	128	128	128	0
5.076675	-1.733588	0.632830	128	128	128	0
5.076675	0.925304	0.708622	128	128	128	0
5.076675	-0.785009	-0.057714	128	128	128	0
5.076675	0.117646	0.083429	128	128	128	0
5.076675	-1.818044	0.533857	128	128	128	0
5.076675	-1.607482	0.869946	128	128	128	0
5.076675	0.135702	1.002557	128	128	128	0
5.076675	-2.764609	-1.601362	128	128	128	0
5.076675	-1.152314	-1.633990	128	128	128	0
5.076675	-2.640145	-0.602508	128	128	128	0
5.076675	-0.889317	-1.136087	128	128	128	0
5.076675	-0.716560	-1.090779	128	128	128	0
5.076675	-1.478369	-1.493236	128	128	128	0
5.076675	-3.094349	-0.543773	128	128	128	0
5.076675	-0.419376	-0.934653	128	128	128	0
5.076675	-1.441278	-0.487339	128	128	128	0
5.076675	-2.960219	-0.041881	128	128	128	0
5.076675	-2.106241	-1.263519	128	128	128	0
5.076675	-4.284959	-0.052313	128	128	128	0
5.076675	0.347043	-1.450010	128	128	128	0
5.076675	0.380716	-1.465057	128	128	128	0
5.076675	-1.226662	-0.477452	128	128	128	0
5.076675	-4.087554	-1.401808	128	128	128	0
5.076675	-0.020541	-1.443930	128	128	128	0
5.076675	-3.796001	-0.315818	128	128	128	0
5.076675	-1.269690	-0.752692	128	128	128	0
5.076675	-1.368374	-1.344594	128	128	128	0
5.076675	-2.917849	-1.538719	128	128	128	0
5.076675	-1.440657	-1.129292	128	128	128	0
5.076675	-3.352424	-0.059541	128	128	128	0
5.076675	-4.266953	1.220124	128	128	128	0
5.076675	-1.705805	-1.090018	128	128	128	0
5.076675	-1.276568	-0.537823	128	128	128	0
5.076675	-3.292399	-0.583418	128	128	128	0
5.076675	-3.291580	-1.151306	128	128	128	0
5.076675	-2.936731	0.067128	128	128	128	0
5.076675	-4.262739	-0.187551	128	128	128	0
5.076675	-0.192986	-1.270445	128	128	128	0
5.076675	-2.003370	-0.406702	128	128	128	0
5.076675	-1.275854	-0.447017	128	128	128	0
5.076675	-3.331971	-1.568094	128	128	128	0
5.076675	-3.941268	-0.648647	128	128	128	0
5.076675	-3.429939	0.442389	128	128	128	0
5.076675	-0.500078	-0.880532	128	128	128	0
5.076675	-1.821842	-1.459901	128	128	128	0
5.076675	-2.720545	-0.909943	128	128	128	0
5.076675	-0.304710	-1.466903	128	128	128	0
5.076675	-0.996149	-1.352288	128	128	128	0
5.076675	-1.406504	-1.632571	128	128	128	0
5.076675	-3.321588	0.363135	128	128	128	0
5.076675	-3.231563	-1.121161	128	128	128	0
5.076675	-3.972568	0.890635	128	128	128	0
5.076675	-2.771651	0.161657	128	128	128	0
5.076675	-3.922271	0.307110	128	128	128	0
5.076675	0.439026	-1.431937	128	128	128	0
5.076675	-2.402662	-1.133052	128	128	128	0
5.076675	-1.203972	-1.557601	128	128	128	0
5.076675	-3.432298	-1.556821	128	128	128	0
5.076675	-3.795680	0.199013	128	128	128	0
5.076675	-4.282102	0.831199	128	128	128	0
5.076675	-2.686834	-1.318243	128	128	128	0
5.076675	-4.244680	-0.284785	128	128	128	0
5.076675	-3.931583	-1.140009	128	128	128	0
5.076675	-1.200239	-0.473893	128	128	128	0
5.076675	-4.114683	0.358410	128	128	128	0
5.076675	-0.336877	-1.178450	128	128	128	0
5.076675	-3.325114	-0.852091	128	128	128	0
5.076675	-3.878639	-0.854682	128	128	128	0
5.076675	-4.132786	0.140814	128	128	128	0
5.076675	-2.058360	-1.534649	128	128	128	0
5.076675	-3.541277	-1.017622	128	128	128	0
5.076675	-4.241816	-0.272704	128	128	128	0
5.076675	-1.351132	-1.542110	128	128	128	0
5.076675	-3.166494	-1.087388	128	128	128	0
5.076675	-3.984088	0.712273	128	128	128	0
5.076675	-3.027830	-0.452613	128	128	128	0
5.076675	-2.463015	-0.190950	128	128	128	0
5.076675	-3.087714	0.061049	128	128	128	0
5.076675	-2.516385	-1.588940	128	128	128	0
5.076675	-2.198205	-0.957092	128	128	128	0
5.076675	-3.711547	-0.319139	128	128	128	0
5.076675	-3.592422	0.851658	128	128	128	0
5.076675	-3.167446	-1.039943	128	128	128	0
5.076675	-3.857622	-1.528811	128	128	128	0
5.076675	-3.671517	-1.638952	128	128	128	0
5.076675	-3.651579	0.576347	128	128	128	0
5.076675	0.661853	-1.636050	128	128	128	0
5.076675	-3.593034	-0.497573	128	128	128	0
5.076675	-3.328551	0.602078	128	128	128	0
5.076675	-0.641021	-0.777844	128	128	128	0
5.076675	-4.252061	-0.696681	128	128	128	0
5.076675	-4.288683	-1.636805	128	128	128	0
5.076675	-0.883760	-0.975498	128	128	128	0
5.076675	-4.019159	-0.011808	128	128	128	0
5.076675	-1.895625	-0.099858	128	128	128	0
5.076675	-3.475105	0.244429	128	128	128	0
5.076675	-0.491263	-0.894846	128	128	128	0
5.076675	-1.895088	-0.293018	128	128	128	0
5.076675	0.757614	-1.586823	128	128	128	0
5.076675	-2.934609	0.184561	128	128	128	0
5.076675	-4.014639	0.550233	128	128	128	0
5.076675	-2.779011	-1.397201	128	128	128	0
5.076675	-1.090497	-0.890827	128	128	128	0
5.076675	-1.787041	-0.777378	128	128	128	0
5.076675	-0.072198	-1.599795	128	128	128	0
5.076675	-2.009758	-0.187759	128	128	128	0
5.076675	-1.144293	-0.772697	128	128	128	0
5.076675	-4.211768	-0.824490	128	128	128	0
5.076675	-0.880839	-1.373656	128	128	128	0
5.076675	-4.130464	0.011344	128	128	128	0
5.076675	-1.096382	-1.139671	128	128	128	0
5.076675	-1.781501	-0.946259	128	128	128	0
5.076675	-2.704818	-1.202491	128	128	128	0
5.076675	-2.227648	-0.703455	128	128	128	0
5.076675	-2.885460	-0.088903	128	128	128	0
5.076675	-0.630051	-0.887960	128	128	128	0
5.076675	-2.786885	0.165423	128	128	128	0
5.076675	-2.742624	-1.119490	128	128	128	0
5.076675	-2.771094	-0.474939	128	128	128	0
5.076675	-3.442206	0.204808	128	128	128	0
5.076675	-4.068403	-0.040040	128	128	128	0
5.076675	-3.382150	0.544933	128	128	128	0
5.076675	-2.795342	-0.079048	128	128	128	0
5.076675	-3.807111	-0.797724	128	128	128	0
5.076675	-1.535979	-0.532290	128	128	128	0
5.076675	-1.268667	-0.478826	128	128	128	0
5.076675	-1.224159	-0.578123	128	128	128	0
5.076675	-3.491842	-0.353641	128	128	128	0
5.076675	-3.061285	0.530225	128	128	128	0
5.076675	-4.190013	-0.247952	128	128	128	0
5.076675	-4.027021	0.257611	128	128	128	0
5.076675	-1.224129	-0.636918	128	128	128	0
5.076675	-0.195946	-1.229241	128	128	128	0
5.076675	-3.740107	0.340074	128	128	128	0
5.076675	-2.292443	-0.349510	128	128	128	0
5.076675	-1.994871	-0.946719	128	128	128	0
5.076675	-3.891773	0.391721	128	128	128	0
5.076675	-3.575783	-1.204933	128	128	128	0
5.076675	-2.780572	-1.417703	128	128	128	0
5.076675	-3.413223	-0.037591	128	128	128	0
5.076675	-2.587216	-0.686905	128	128	128	0
5.076675	-2.921534	0.340291	128	128	128	0
5.076675	-3.890989	-1.365825	128	128	128	0
5.076675	-4.046896	-0.024972	128	128	128	0
5.076675	-3.192341	0.544429	128	128	128	0
5.076675	-1.529028	-0.855672	128	128	128	0
5.076675	-4.020747	-0.474547	128	128	128	0
5.076675	-3.602653	0.707664	128	128	128	0
5.076675	-2.260974	-0.898669	128	128	128	0
5.076675	-1.347518	-0.827050	128	128	128	0
5.076675	-0.610127	-1.138040	128	128	128	0
5.076675	-1.991823	-0.660845	128	128	128	0
5.076675	-3.277354	0.339880	128	128	128	0
5.076675	-1.639281	-0.661871	128	128	128	0
5.076675	-3.763441	-1.117318	128	128	128	0
5.076675	-2.124762	-1.040336	128	128	128	0
5.076675	-2.774663	-0.731095	128	128	128	0
5.076675	0.354056	-1.378593	128	128	128	0
5.076675	-2.533948	0.287377	128	128	128	0
5.076675	-0.407718	-1.217522	128	128	128	0
5.076675	-4.143653	-1.065516	128	128	128	0
5.076675	-1.073023	-0.997367	128	128	128	0
5.076675	-2.063918	-1.329349	128	128	128	0
5.076675	-4.146145	-0.732693	128	128	128	0
5.076675	-3.369897	0.698992	128	128	128	0
5.076675	-3.243460	-0.258576	128	128	128	0
5.076675	0.164471	-1.398559	128	128	128	0
5.076675	-0.465636	-0.941117	128	128	128	0
5.076675	-3.749415	-1.460374	128	128	128	0
5.076675	-3.913903	-1.356010	128	128	128	0
5.076675	-3.355713	-0.814817	128	128	128	0
5.076675	-0.319776	-1.105956	128	128	128	0
5.076675	0.211072	-1.628881	128	128	128	0
5.076675	-4.080208	-0.795890	128	128	128	0
5.076675	-3.821326	-1.614765	128	128	128	0
5.076675	0.151431	-1.451242	128	128	128	0
5.076675	-2.023556	-1.028465	128	128	128	0
5.076675	-4.078644	-1.360498	128	128	128	0
5.076675	-1.609294	-0.383942	128	128	128	0
5.076675	-1.098970	-1.024380	128	128	128	0
5.076675	-1.902861	-1.032593	128	128	128	0
5.076675	-2.579163	-0.603541	128	128	128	0
5.076675	-3.221477	-0.233722	128	128	128	0
5.076675	0.105768	-1.502276	128	128	128	0
5.076675	-4.003868	-0.466285	128	128	128	0
5.076675	-0.954287	-1.236144	128	128	128	0
5.076675	-3.322364	0.316794	128	128	128	0
5.076675	-3.776935	-0.878107	128	128	128	0
5.076675	-3.476484	-0.656437	128	128	128	0
5.076675	-1.063114	-1.306716	128	128	128	0
5.076675	-2.809492	-1.283559	128	128	128	0
5.076675	-1.637428	-0.533331	128	128	128	0
5.076675	-0.631627	-1.432097	128	128	128	0
5.076675	-0.090105	-1.191607	128	128	128	0
5.076675	-1.693894	-1.065186	128	128	128	0
5.076675	-2.093005	-0.531467	128	128	128	0
5.076675	-0.189781	-1.188186	128	128	128	0
5.076675	-0.968123	-0.835653	128	128	128	0
5.076675	-3.849124	-1.263085	128	128	128	0
5.076675	-4.041000	-0.698587	128	128	128	0
5.076675	-2.558371	-0.663101	128	128	128	0
5.076675	-1.322161	-0.388993	128	128	128	0
5.076675	-3.398399	-0.964942	128	128	128	0
5.076675	-3.038745	-0.281638	128	128	128	0
5.076675	-3.177888	-0.679681	128	128	128	0
5.076675	-1.067250	-1.396119	128	128	128	0
5.076675	-3.565418	-0.404709	128	128	128	0
5.076675	-0.746766	-1.475338	128	128	128	0
5.076675	-4.107962	0.200866	128	128	128	0
5.076675	-0.044710	-1.268437	128	128	128	0
5.076675	-3.577636	-1.528614	128	128	128	0
5.076675	-2.256419	-0.395080	128	128	128	0
5.076675	-4.018266	0.906693	128	128	128	0
5.076675	-0.843664	-1.055675	128	128	128	0
5.076675	-3.870581	-1.252444	128	128	128	0
5.076675	-4.074486	0.700784	128	128	128	0
5.076675	-3.206902	-0.720434	128	128	128	0
5.076675	-1.225201	-0.574924	128	128	128	0
5.076675	0.787119	-1.581086	128	128	128	0
5.076675	-3.147102	-0.610687	128	128	128	0
5.076675	-1.968637	-1.316976	128	128	128	0
5.076675	-4.076524	0.188744	128	128	128	0
5.076675	-2.484248	-1.022886	128	128	128	0
5.076675	-1.898422	-0.591103	128	128	128	0
5.076675	-4.201690	1.038390	128	128	128	0
5.076675	-3.626952	0.150561	128	128	128	0
5.076675	-2.040233	-1.080286	128	128	128	0
5.076675	-3.954766	0.803479	128	128	128	0
5.076675	-4.122517	-1.284555	128	128	128	0
5.076675	-3.055096	-0.641263	128	128	128	0
5.076675	-1.654053	-1.096404	128	128	128	0
5.076675	-3.342554	0.222540	128	128	128	0
5.076675	-3.111358	-1.576370	128	128	128	0
5.076675	-3.855080	0.815896	128	128	128	0
5.076675	-2.745264	-0.723983	128	128	128	0
5.076675	-4.030868	-0.214756	128	128	128	0
5.107272	-3.014893	1.254497	128	128	128	0
5.142107	-1.478666	1.254497	128	128	128	0
5.139278	-1.151803	1.254497	128	128	128	0
5.170915	-1.972746	1.254497	128	128	128	0
5.079145	-4.254155	1.254497	128	128	128	0
5.171323	-3.062412	1.254497	128	128	128	0
5.154922	-0.474192	1.254497	128	128	128	0
5.103314	-0.775150	1.254497	128	128	128	0
5.097323	-0.525972	1.254497	128	128	128	0
5.091702	-3.481572	1.254497	128	128	128	0
5.100132	-2.680653	1.254497	128	128	128	0
5.120983	-1.634138	1.254497	128	128	128	0
5.082111	-3.582617	1.254497	128	128	128	0
5.147359	-0.301354	1.254497	128	128	128	0
5.100353	-1.639642	1.254497	128	128	128	0
5.134670	1.020406	-0.063359	128	128	128	0
5.155391	1.020406	-0.009451	128	128	128	0
5.106688	1.020406	0.626688	128	128	128	0
5.172122	1.020406	-0.992206	128	128	128	0
5.148224	1.020406	0.856235	128	128	128	0
5.077662	1.020406	0.909276	128	128	128	0
