//X	Y	Z
-763991.417	-1035466.095	413.969
-763991.874	-1035472.809	413.974
-763992.91	-1035468.476	413.965
-763991.083	-1035465.709	413.97
-763993.118	-1035469.169	413.972
-763990.1	-1035470.9	413.962
-763994.852	-1035470.784	413.992
-763993.003	-1035470.711	413.967
-763994.054	-1035471.206	413.987
-763991.563	-1035466.958	413.963
-763990.129	-1035472.191	413.967
-763990.466	-1035474.555	413.989
-763993.659	-1035469.011	413.974
-763990.547	-1035466.673	413.961
-763990.498	-1035472.945	413.979
-763994.219	-1035470.882	413.987
-763994.074	-1035469.105	413.982
-763991.613	-1035473.677	413.988
-763990.555	-1035473.836	413.984
-763991.169	-1035473.771	413.987
-763992.173	-1035469.604	413.961
-763994.699	-1035469.806	413.989
-763992.726	-1035468.365	413.964
-763991.589	-1035469.964	413.956
-763992.833	-1035472.405	413.979
-763994.621	-1035470.864	413.994
-763991.64	-1035468.834	413.954
-763992.463	-1035471.48	413.968
-763992.321	-1035471.318	413.965
-763993.035	-1035472.555	413.983
-763990.267	-1035466.845	413.957
-763991.089	-1035467.837	413.954
-763991.703	-1035468.769	413.956
-763991.186	-1035466.163	413.966
-763992.63	-1035468.117	413.96
-763991.437	-1035472.482	413.971
-763990.398	-1035471.877	413.963
-763993.919	-1035469.535	413.978
-763993.09	-1035469.454	413.971
-763993.63	-1035470.449	413.987
-763990.235	-1035470.614	413.957
-763993.429	-1035469.643	413.973
-763990.594	-1035470.342	413.955
-763990.796	-1035466.389	413.963
-763990.339	-1035472.04	413.964
-763991.747	-1035466.812	413.964
-763990.271	-1035471.769	413.965
-763993.887	-1035468.946	413.978
-763991.652	-1035471.856	413.962
-763992.162	-1035468.92	413.963
-763990.492	-1035474.95	413.998
-763991.612	-1035466.748	413.964
-763993.866	-1035469.7	413.98
-763993.108	-1035469.044	413.97
-763989.991	-1035466.454	413.958
-763993.044	-1035470.918	413.968
-763993.352	-1035467.831	413.973
-763992.529	-1035468.203	413.96
-763992.114	-1035468.151	413.954
-763991.306	-1035473.038	413.975
-763990.699	-1035467.168	413.957
-763990.166	-1035472.806	413.974
-763993.168	-1035468.396	413.969
-763994.24	-1035471.426	413.982
-763990.117	-1035472.126	413.967
-763991.757	-1035472.187	413.966
-763993.552	-1035468.293	413.969
-763991.502	-1035472.515	413.972
-763991.643	-1035470.176	413.955
-763992.204	-1035470.178	413.956
-763991.071	-1035466.016	413.966
-763990.139	-1035466.028	413.965
-763991.305	-1035472.11	413.968
-763992.269	-1035469.391	413.965
-763994.531	-1035469.648	413.99
-763991.115	-1035466.683	413.964
-763992.192	-1035471.265	413.964
-763995.083	-1035470.094	413.995
-763992.35	-1035471.829	413.968
-763992.654	-1035473.048	413.962
-763992.203	-1035466.961	413.959
-763991.292	-1035470.229	413.954
-763992.621	-1035469.812	413.97
-763990.816	-1035473.276	413.982
-763990.61	-1035474.838	413.995
-763991.736	-1035467.16	413.96
-763993.153	-1035467.935	413.966
-763991.21	-1035467.911	413.955
-763990.642	-1035466.532	413.964
-763993.818	-1035468.428	413.976
-763990.327	-1035471.948	413.966
-763991.78	-1035469.324	413.954
-763992.731	-1035467.381	413.956
-763992.021	-1035470.861	413.958
-763990.325	-1035472.057	413.964
-763990.888	-1035474.348	413.987
-763991.415	-1035471.501	413.959
-763991.518	-1035466.552	413.966
-763990.528	-1035470.827	413.959
-763990.614	-1035466.579	413.963
-763993.289	-1035468.244	413.968
-763992.087	-1035470.456	413.955
-763990.352	-1035471.098	413.962
-763991.194	-1035467.58	413.954
-763992.528	-1035469.354	413.97
-763991.479	-1035466.342	413.969
-763992.18	-1035469.077	413.966
-763990.996	-1035472.404	413.968
-763990.503	-1035466.972	413.96
-763991.351	-1035474.127	413.991
-763993.045	-1035472.111	413.978
-763991.578	-1035466.712	413.966
-763994.2	-1035470.83	413.987
-763992.309	-1035472.171	413.968
-763990.877	-1035467.046	413.962
-763991.538	-1035470.257	413.955
-763990.341	-1035472.594	413.976
-763990.623	-1035471.688	413.963
-763991.763	-1035469.098	413.956
-763990.039	-1035466.863	413.956
-763990.993	-1035467.527	413.954
-763991.884	-1035466.274	413.974
-763990.448	-1035474.118	413.984
-763990.559	-1035466.818	413.959
-763991.494	-1035466.331	413.97
-763990.555	-1035470.423	413.956
-763993.178	-1035469.778	413.975
-763993.323	-1035470.972	413.975
-763992.657	-1035469.237	413.971
-763990.163	-1035465.962	413.965
-763991.764	-1035466.286	413.972
-763990.524	-1035466.902	413.958
-763990.188	-1035472.095	413.967
-763994.534	-1035469.797	413.988
-763990.944	-1035471.977	413.964
-763992.031	-1035470.659	413.955
-763989.982	-1035466.728	413.955
-763993.642	-1035469.826	413.978
-763992.054	-1035470.662	413.956
-763989.696	-1035466.834	413.954
-763991.489	-1035472.025	413.968
-763989.023	-1035468.328	413.956
-763989.564	-1035469.111	413.958
-763987.686	-1035469.186	413.965
-763991.011	-1035471.476	413.959
-763988.092	-1035468.039	413.971
-763987.965	-1035468.963	413.965
-763989.561	-1035468.782	413.958
-763988.056	-1035467.91	413.97
-763988.172	-1035468.759	413.962
-763991.814	-1035471.408	413.958
-763988.24	-1035467.357	413.965
-763992.086	-1035473.205	413.981
-763988.406	-1035467.279	413.959
-763987.06	-1035469.859	413.969
-763988.0	-1035468.813	413.966
-763987.758	-1035470.123	413.955
-763988.095	-1035466.932	413.967
-763990.188	-1035473.971	413.982
-763987.898	-1035468.569	413.968
-763987.946	-1035468.928	413.967
-763990.154	-1035473.397	413.981
-763988.502	-1035468.121	413.956
-763988.538	-1035468.274	413.957
-763988.749	-1035469.068	413.96
-763987.071	-1035470.166	413.965
-763990.569	-1035475.105	413.98
-763988.168	-1035467.384	413.97
-763987.822	-1035468.366	413.968
-763989.81	-1035466.317	413.961
-763987.774	-1035469.956	413.961
-763989.268	-1035468.656	413.958
-763987.745	-1035470.166	413.957
-763987.651	-1035467.223	413.976
-763987.672	-1035468.783	413.966
-763988.149	-1035469.877	413.965
-763988.208	-1035467.684	413.971
-763989.343	-1035469.904	413.954
-763987.391	-1035468.528	413.972
-763989.401	-1035471.543	413.965
-763988.57	-1035470.407	413.962
-763987.607	-1035470.001	413.96
-763987.189	-1035469.418	413.972
-763988.395	-1035470.662	413.957
-763987.877	-1035467.828	413.971
-763988.089	-1035467.413	413.97
-763988.408	-1035468.084	413.962
-763987.99	-1035469.09	413.962
-763987.096	-1035469.109	413.972
-763988.427	-1035468.18	413.96
-763988.615	-1035470.074	413.959
-763989.628	-1035468.964	413.955
-763988.13	-1035467.459	413.969
-763988.279	-1035467.054	413.962
-763987.537	-1035469.206	413.97
-763987.533	-1035469.943	413.954
-763988.791	-1035468.179	413.954
-763987.113	-1035470.065	413.965
-763989.028	-1035469.513	413.962
-763988.085	-1035469.576	413.964
-763987.345	-1035469.596	413.97
-763988.249	-1035469.388	413.961
-763988.606	-1035469.254	413.963
-763988.794	-1035468.645	413.96
-763987.293	-1035469.452	413.971
-763987.515	-1035469.187	413.968
-763989.319	-1035470.006	413.954
-763989.583	-1035468.988	413.957
-763987.95	-1035467.747	413.972
-763987.979	-1035469.404	413.96
-763988.966	-1035468.35	413.954
-763988.618	-1035467.76	413.96
-763987.705	-1035469.274	413.966
-763988.282	-1035467.426	413.968
-763987.028	-1035469.064	413.974
-763987.933	-1035470.146	413.957
-763989.388	-1035469.4	413.955
-763988.661	-1035467.126	413.956
-763987.09	-1035469.21	413.971
-763987.464	-1035469.446	413.972
-763988.898	-1035468.003	413.954
-763989.837	-1035466.456	413.958
-763988.161	-1035469.702	413.964
-763988.129	-1035467.087	413.968
-763989.641	-1035469.282	413.957
-763988.464	-1035469.509	413.962
-763987.446	-1035469.129	413.972
-763988.856	-1035467.887	413.957
-763987.47	-1035469.31	413.972
-763988.016	-1035468.235	413.968
-763988.724	-1035468.956	413.958
-763987.38	-1035468.702	413.972
-763987.852	-1035469.606	413.97
-763987.024	-1035469.674	413.97
-763988.345	-1035467.257	413.961
-763988.653	-1035467.042	413.957
-763988.855	-1035471.418	413.956
-763987.765	-1035466.894	413.97
-763988.898	-1035467.836	413.955
-763989.693	-1035471.433	413.963
-763988.92	-1035469.252	413.961
-763988.515	-1035469.009	413.962
-763987.856	-1035468.736	413.966
-763987.631	-1035469.174	413.966
-763988.608	-1035469.538	413.963
-763989.76	-1035471.24	413.963
-763986.934	-1035469.03	413.972
-763989.248	-1035469.849	413.958
-763987.611	-1035469.792	413.966
-763987.858	-1035468.108	413.969
-763988.988	-1035468.517	413.954
-763988.348	-1035468.289	413.961
-763989.117	-1035469.57	413.963
-763988.999	-1035471.484	413.956
-763987.812	-1035469.523	413.969
-763988.493	-1035468.36	413.959
-763988.01	-1035466.998	413.971
-763987.947	-1035468.262	413.967
-763987.558	-1035469.729	413.967
-763987.922	-1035468.933	413.965
-763987.907	-1035467.603	413.972
-763987.811	-1035467.752	413.969
-763988.649	-1035468.859	413.958
-763988.27	-1035466.777	413.962
-763988.196	-1035468.539	413.964
-763987.205	-1035467.912	413.979
-763988.098	-1035467.627	413.96
-763988.25	-1035469.94	413.963
-763988.428	-1035467.034	413.956
-763987.89	-1035466.864	413.97
-763987.906	-1035468.233	413.967
-763988.519	-1035467.93	413.96
-763990.026	-1035471.188	413.963
-763987.334	-1035469.498	413.971
-763986.937	-1035468.403	413.979
-763988.592	-1035470.309	413.96
-763988.002	-1035469.34	413.96
-763990.003	-1035471.143	413.962
-763989.592	-1035471.184	413.96
-763988.044	-1035467.734	413.971
-763988.998	-1035469.601	413.96
-763989.884	-1035469.426	413.954
-763989.052	-1035468.717	413.963
-763989.306	-1035471.594	413.961
-763988.142	-1035469.045	413.965
-763987.574	-1035468.283	413.975
-763987.427	-1035470.17	413.961
-763989.428	-1035466.35	413.96
-763986.89	-1035469.53	413.968
-763987.367	-1035469.219	413.973
-763989.088	-1035472.067	413.966
-763986.894	-1035467.603	413.986
-763986.96	-1035467.822	413.98
-763989.176	-1035471.912	413.959
-763988.042	-1035468.981	413.964
-763988.084	-1035468.254	413.967
-763986.944	-1035470.175	413.972
-763988.942	-1035471.489	413.957
-763989.94	-1035471.545	413.963
-763986.944	-1035469.506	413.968
-763988.02	-1035468.194	413.968
-763988.918	-1035471.494	413.956
-763989.701	-1035471.494	413.964
-763989.251	-1035471.775	413.956
-763987.897	-1035470.684	413.956
-763987.098	-1035471.815	413.976
-763987.432	-1035469.359	413.972
-763987.752	-1035468.05	413.968
-763989.847	-1035469.348	413.954
-763989.097	-1035469.305	413.958
-763988.59	-1035469.122	413.96
-763987.547	-1035472.031	413.963
-763986.911	-1035468.139	413.976
-763987.186	-1035467.417	413.98
-763987.706	-1035471.778	413.963
-763987.443	-1035472.24	413.955
-763987.032	-1035467.354	413.984
-763988.606	-1035472.92	413.981
-763987.944	-1035471.608	413.955
-763987.368	-1035470.624	413.963
-763987.719	-1035468.296	413.972
-763987.594	-1035470.837	413.962
-763988.12	-1035470.714	413.956
-763986.988	-1035469.576	413.969
-763988.237	-1035471.861	413.966
-763987.494	-1035471.633	413.968
-763988.001	-1035472.108	413.968
-763987.867	-1035470.81	413.96
-763989.007	-1035472.777	413.974
-763986.996	-1035468.079	413.981
-763987.302	-1035470.438	413.966
-763987.2	-1035471.863	413.974
-763988.866	-1035472.54	413.974
-763988.586	-1035470.501	413.963
-763989.111	-1035471.517	413.955
-763987.49	-1035472.221	413.964
-763989.964	-1035470.632	413.958
-763987.41	-1035470.799	413.966
-763988.454	-1035472.486	413.973
-763987.702	-1035472.016	413.955
-763989.901	-1035470.481	413.954
-763987.325	-1035471.144	413.968
-763987.191	-1035468.247	413.975
-763989.964	-1035474.248	413.989
-763988.856	-1035472.18	413.97
-763989.751	-1035474.599	413.973
-763987.839	-1035471.097	413.958
-763989.513	-1035472.885	413.976
-763987.965	-1035471.581	413.954
-763989.853	-1035473.577	413.979
-763989.296	-1035472.716	413.974
-763987.15	-1035471.524	413.973
-763987.863	-1035471.174	413.958
-763989.544	-1035470.889	413.958
-763987.414	-1035471.133	413.966
-763987.468	-1035468.041	413.976
-763988.872	-1035473.66	413.985
-763989.462	-1035472.928	413.976
-763987.54	-1035471.471	413.97
-763987.516	-1035470.258	413.958
-763987.688	-1035471.727	413.964
-763989.964	-1035470.729	413.958
-763987.777	-1035471.428	413.963
-763989.989	-1035470.939	413.96
-763989.853	-1035473.944	413.983
-763988.088	-1035470.958	413.957
-763989.651	-1035471.69	413.966
-763989.26	-1035473.744	413.987
-763988.547	-1035472.329	413.971
-763989.575	-1035470.954	413.959
-763987.019	-1035470.827	413.97
-763988.734	-1035473.41	413.986
-763989.811	-1035473.36	413.98
-763987.784	-1035472.471	413.977
-763989.396	-1035472.167	413.965
-763988.49	-1035472.37	413.972
-763986.926	-1035471.112	413.972
-763989.784	-1035472.491	413.97
-763987.717	-1035470.729	413.96
-763989.415	-1035473.324	413.98
-763988.154	-1035472.957	413.973
-763989.586	-1035472.294	413.966
-763987.908	-1035472.181	413.97
-763988.208	-1035472.566	413.977
-763987.037	-1035471.562	413.973
-763987.774	-1035471.832	413.956
-763990.005	-1035472.357	413.968
-763989.949	-1035472.305	413.964
-763987.983	-1035471.467	413.956
-763987.616	-1035470.509	413.958
-763987.877	-1035472.535	413.98
-763988.842	-1035472.321	413.97
-763988.158	-1035472.669	413.98
-763989.064	-1035473.873	413.984
-763987.623	-1035472.406	413.97
-763988.18	-1035470.823	413.957
-763989.619	-1035472.968	413.978
-763987.999	-1035470.528	413.959
-763987.553	-1035470.223	413.959
-763987.066	-1035470.857	413.969
-763987.702	-1035472.414	413.972
-763989.08	-1035473.1	413.977
-763987.944	-1035472.443	413.976
-763989.746	-1035473.671	413.98
-763989.553	-1035473.724	413.983
-763988.255	-1035471.739	413.962
-763987.453	-1035472.123	413.967
-763987.736	-1035471.59	413.966
-763988.049	-1035472.232	413.97
-763988.794	-1035471.939	413.967
-763988.614	-1035472.284	413.973
-763987.903	-1035471.387	413.958
-763988.058	-1035470.891	413.96
-763989.016	-1035472.996	413.978
-763989.874	-1035472.553	413.97
-763989.439	-1035472.682	413.974
-763988.384	-1035472.628	413.977
-763987.089	-1035471.754	413.978
-763987.93	-1035471.455	413.957
-763989.842	-1035472.271	413.965
-763988.245	-1035472.416	413.972
-763989.47	-1035473.514	413.981
-763988.562	-1035473.298	413.984
-763989.772	-1035473.561	413.979
-763988.592	-1035472.419	413.97
-763989.804	-1035472.679	413.972
-763989.853	-1035472.124	413.961
-763987.923	-1035471.082	413.956
-763987.254	-1035472.004	413.972
-763988.556	-1035471.77	413.962
-763988.527	-1035472.117	413.968
-763989.03	-1035472.936	413.976
-763989.631	-1035473.24	413.978
-763987.478	-1035470.413	413.96
-763988.952	-1035472.277	413.973
-763987.743	-1035471.526	413.966
-763987.388	-1035471.666	413.97
-763988.832	-1035472.625	413.974
-763987.972	-1035470.507	413.959
-763987.842	-1035470.926	413.958
-763989.709	-1035472.775	413.974
-763988.216	-1035472.774	413.98
-763989.099	-1035473.603	413.986
-763989.456	-1035472.375	413.966
-763989.969	-1035473.776	413.981
-763989.467	-1035473.57	413.981
-763991.952	-1035470.925	413.959
-763985.897	-1035461.033	413.973
-763985.912	-1035461.583	413.971
-763984.814	-1035466.525	413.967
-763981.954	-1035464.412	413.975
-763984.557	-1035461.617	413.979
-763981.934	-1035464.655	413.982
-763984.567	-1035465.361	413.965
-763985.939	-1035465.447	413.972
-763985.88	-1035465.477	413.972
-763983.661	-1035464.931	413.973
-763984.972	-1035465.583	413.974
-763982.996	-1035464.934	413.98
-763982.345	-1035464.026	413.987
-763985.839	-1035465.924	413.976
-763985.123	-1035466.281	413.969
-763985.947	-1035465.032	413.966
-763985.036	-1035465.304	413.978
-763984.327	-1035467.023	413.979
-763984.717	-1035466.933	413.982
-763984.748	-1035466.652	413.975
-763986.581	-1035468.737	413.954
-763986.768	-1035468.97	413.971
-763986.184	-1035469.595	413.98
-763986.148	-1035468.976	413.973
-763986.267	-1035469.581	413.977
-763984.976	-1035469.704	413.991
-763986.466	-1035468.35	413.984
-763986.535	-1035468.568	413.979
-763985.355	-1035469.554	413.982
-763986.027	-1035468.774	413.975
-763986.284	-1035469.121	413.974
-763985.639	-1035469.312	413.98
-763986.769	-1035469.48	413.968
-763985.785	-1035469.571	413.979
-763986.179	-1035468.226	413.983
-763986.515	-1035469.32	413.973
-763985.108	-1035469.557	413.984
-763986.63	-1035469.093	413.975
-763986.266	-1035468.725	413.972
-763985.341	-1035469.336	413.983
-763986.352	-1035469.421	413.972
-763985.14	-1035469.495	413.984
-763986.654	-1035469.468	413.97
-763986.588	-1035467.902	413.982
-763986.846	-1035469.197	413.968
-763986.584	-1035468.084	413.982
-763986.352	-1035469.013	413.974
-763986.151	-1035469.644	413.978
-763986.521	-1035468.723	413.975
-763985.893	-1035469.081	413.981
-763986.855	-1035469.346	413.968
-763986.139	-1035468.808	413.976
-763986.72	-1035468.19	413.979
-763986.036	-1035468.563	413.977
-763986.424	-1035468.791	413.975
-763986.248	-1035469.678	413.975
-763985.937	-1035468.638	413.977
-763985.253	-1035469.785	413.986
-763986.731	-1035469.562	413.968
-763985.845	-1035469.105	413.982
-763985.786	-1035468.983	413.981
-763986.177	-1035470.086	413.973
-763986.472	-1035470.134	413.97
-763986.862	-1035471.037	413.971
-763986.576	-1035471.213	413.977
-763985.817	-1035470.051	413.978
-763986.265	-1035470.641	413.976
-763985.771	-1035469.99	413.979
-763985.819	-1035470.538	413.983
-763985.384	-1035469.992	413.987
-763986.17	-1035469.875	413.974
-763985.093	-1035469.942	413.96
-763986.503	-1035470.386	413.97
-763986.511	-1035470.636	413.97
-763986.273	-1035471.076	413.972
-763985.823	-1035470.176	413.977
-763986.539	-1035471.162	413.978
-763985.937	-1035470.587	413.98
-763985.29	-1035469.912	413.985
-763986.019	-1035470.209	413.976
-763985.821	-1035470.091	413.977
-763986.248	-1035470.562	413.972
-763986.645	-1035469.781	413.975
-763985.046	-1035469.885	413.971
-763986.206	-1035470.412	413.972
-763985.834	-1035470.08	413.98
-763986.055	-1035470.403	413.976
-763986.03	-1035470.59	413.982
-763986.296	-1035469.867	413.974
-763985.836	-1035470.316	413.982
-763985.841	-1035470.366	413.98
-763986.18	-1035470.92	413.981
-763986.615	-1035470.571	413.968
-763985.881	-1035469.801	413.977
-763986.338	-1035470.326	413.972
-763986.107	-1035469.832	413.975
-763986.667	-1035469.865	413.976
-763986.539	-1035471.26	413.978
-763985.788	-1035470.425	413.983
-763985.853	-1035470.036	413.978
-763986.763	-1035470.177	413.973
-763986.098	-1035469.824	413.977
-763986.774	-1035469.949	413.974
-763985.914	-1035470.483	413.985
-763991.81	-1035472.195	413.967
-763991.397	-1035471.781	413.961
-763991.313	-1035465.684	413.972
-763994.248	-1035470.26	413.987
-763990.213	-1035466.07	413.965
-763991.864	-1035472.392	413.97
-763991.924	-1035468.96	413.964
-763993.205	-1035468.538	413.969
-763994.811	-1035470.816	413.993
-763991.864	-1035473.11	413.975
-763992.15	-1035469.93	413.954
-763991.871	-1035473.468	413.984
-763990.19	-1035466.471	413.96
-763990.356	-1035466.23	413.964
-763991.741	-1035468.712	413.955
-763992.381	-1035470.275	413.961
-763990.209	-1035471.77	413.966
-763993.569	-1035469.776	413.977
-763994.98	-1035470.443	413.996
-763990.566	-1035471.04	413.961
-763990.274	-1035466.198	413.963
-763990.882	-1035465.734	413.969
-763991.404	-1035474.114	413.992
-763993.449	-1035467.922	413.974
-763992.479	-1035471.51	413.969
-763989.987	-1035466.319	413.961
-763990.455	-1035471.254	413.963
-763990.547	-1035466.208	413.965
-763990.697	-1035474.968	413.985
-763992.132	-1035471.546	413.964
-763992.008	-1035469.466	413.958
-763990.186	-1035466.51	413.958
-763993.524	-1035469.18	413.97
-763991.845	-1035468.339	413.954
-763990.33	-1035466.974	413.956
-763991.436	-1035470.913	413.956
-763992.876	-1035468.638	413.965
-763993.453	-1035470.109	413.981
-763991.746	-1035467.344	413.958
-763990.541	-1035467.111	413.957
-763993.018	-1035470.996	413.969
-763992.238	-1035473.03	413.981
-763993.635	-1035470.299	413.985
-763992.448	-1035469.123	413.969
-763991.676	-1035472.333	413.97
-763990.097	-1035466.547	413.957
-763991.012	-1035472.797	413.974
-763991.369	-1035467.354	413.957
-763992.525	-1035472.898	413.981
-763993.154	-1035468.164	413.968
-763994.018	-1035470.003	413.983
-763994.175	-1035470.291	413.986
-763995.438	-1035470.176	413.993
-763990.958	-1035472.57	413.971
-763992.67	-1035468.223	413.963
-763990.631	-1035470.392	413.954
-763994.12	-1035468.381	413.967
-763991.833	-1035473.365	413.981
-763990.23	-1035466.323	413.962
-763994.329	-1035468.809	413.991
-763990.368	-1035466.07	413.964
-763992.674	-1035468.934	413.966
-763990.742	-1035471.072	413.956
-763992.12	-1035467.014	413.959
-763993.99	-1035470.118	413.982
-763993.758	-1035469.642	413.977
-763992.32	-1035468.874	413.964
-763990.62	-1035466.496	413.963
-763990.84	-1035465.736	413.969
-763994.305	-1035470.825	413.988
-763991.148	-1035472.453	413.969
-763992.395	-1035466.727	413.96
-763992.519	-1035468.872	413.966
-763993.183	-1035467.562	413.972
-763990.741	-1035473.609	413.983
-763991.095	-1035465.698	413.971
-763992.042	-1035471.775	413.964
-763990.324	-1035467.176	413.956
-763992.04	-1035467.353	413.956
-763991.177	-1035468.021	413.954
-763990.612	-1035475.041	413.984
-763992.158	-1035467.076	413.957
-763990.124	-1035471.588	413.964
-763991.417	-1035470.132	413.954
-763993.16	-1035468.984	413.97
-763990.53	-1035471.491	413.963
-763993.429	-1035468.132	413.966
-763991.744	-1035470.058	413.956
-763993.251	-1035469.206	413.971
-763992.022	-1035472.424	413.97
-763990.097	-1035471.572	413.964
-763990.33	-1035472.357	413.971
-763992.138	-1035466.812	413.964
-763990.514	-1035472.178	413.966
-763991.005	-1035470.858	413.954
-763992.539	-1035469.855	413.968
-763990.399	-1035473.343	413.981
-763990.467	-1035470.937	413.961
-763990.739	-1035467.365	413.956
-763989.959	-1035466.667	413.956
-763990.174	-1035466.502	413.959
-763993.347	-1035470.239	413.984
-763991.247	-1035467.492	413.955
-763991.417	-1035470.417	413.954
-763990.27	-1035466.802	413.957
-763991.769	-1035472.164	413.966
-763994.345	-1035470.563	413.989
-763992.439	-1035470.193	413.966
-763991.538	-1035470.686	413.955
-763991.875	-1035473.762	413.987
-763991.43	-1035470.098	413.954
-763990.473	-1035465.974	413.965
-763991.874	-1035466.638	413.966
-763992.82	-1035471.686	413.969
-763990.202	-1035470.976	413.962
-763991.439	-1035472.894	413.972
-763991.834	-1035468.701	413.959
-763990.192	-1035471.84	413.964
-763992.996	-1035467.994	413.965
-763992.877	-1035471.698	413.97
-763995.136	-1035470.502	413.99
-763990.897	-1035466.476	413.964
-763991.627	-1035473.069	413.974
-763994.04	-1035470.03	413.982
-763990.803	-1035467.443	413.954
-763993.338	-1035468.213	413.969
-763992.629	-1035467.746	413.958
-763992.014	-1035471.523	413.963
-763990.751	-1035465.936	413.967
-763990.418	-1035472.117	413.965
-763990.566	-1035472.011	413.963
-763991.034	-1035465.935	413.967
-763990.679	-1035471.951	413.963
-763990.357	-1035473.358	413.982
-763990.304	-1035470.698	413.96
-763990.278	-1035474.726	413.992
-763991.76	-1035470.849	413.957
-763990.162	-1035472.29	413.968
-763994.518	-1035470.4	413.99
-763994.173	-1035469.262	413.983
-763992.448	-1035471.967	413.968
-763990.613	-1035466.643	413.961
-763990.378	-1035471.169	413.962
-763992.447	-1035471.024	413.965
-763990.998	-1035466.498	413.965
-763991.92	-1035470.881	413.956
-763993.197	-1035469.509	413.97
-763991.897	-1035471.247	413.959
-763992.654	-1035467.542	413.954
-763990.272	-1035473.413	413.983
-763991.181	-1035471.124	413.954
-763990.105	-1035466.841	413.955
-763990.086	-1035466.68	413.957
-763991.08	-1035470.521	413.955
-763991.708	-1035468.461	413.956
-763991.467	-1035471.703	413.96
-763992.422	-1035468.838	413.964
-763993.022	-1035469.437	413.971
-763990.664	-1035467.313	413.956
-763990.562	-1035467.203	413.956
-763993.215	-1035470.222	413.982
-763990.563	-1035466.636	413.961
-763992.221	-1035471.194	413.963
-763993.137	-1035469.756	413.976
-763990.346	-1035470.553	413.956
-763993.276	-1035469.91	413.976
-763991.193	-1035472.471	413.97
-763993.91	-1035468.626	413.976
-763994.103	-1035469.508	413.981
-763991.053	-1035472.401	413.969
-763993.691	-1035470.657	413.988
-763991.016	-1035466.663	413.964
-763990.242	-1035474.273	413.986
-763992.712	-1035472.061	413.974
-763990.764	-1035473.115	413.98
-763991.002	-1035471.424	413.96
-763994.054	-1035469.789	413.981
-763990.59	-1035474.9	413.997
-763991.537	-1035473.502	413.987
-763990.887	-1035466.95	413.96
-763991.634	-1035473.412	413.985
-763992.152	-1035468.11	413.955
-763990.356	-1035472.418	413.972
-763992.369	-1035470.975	413.965
-763990.755	-1035471.262	413.961
-763991.238	-1035471.703	413.963
-763991.53	-1035472.644	413.972
-763991.864	-1035466.359	413.972
-763990.455	-1035466.194	413.964
-763994.11	-1035468.729	413.982
-763994.406	-1035470.595	413.99
-763990.363	-1035466.643	413.959
-763990.144	-1035471.013	413.962
-763991.897	-1035469.38	413.957
-763991.941	-1035469.354	413.957
-763994.681	-1035470.44	413.99
-763991.35	-1035467.81	413.954
-763992.624	-1035469.564	413.975
-763991.957	-1035467.42	413.954
-763991.158	-1035472.598	413.971
-763994.618	-1035470.725	413.992
-763990.254	-1035466.249	413.962
-763993.121	-1035471.726	413.976
-763991.492	-1035467.447	413.957
-763992.138	-1035468.464	413.96
-763994.002	-1035468.985	413.982
-763991.455	-1035466.056	413.969
-763993.863	-1035470.67	413.987
-763992.48	-1035469.276	413.96
-763990.163	-1035472.205	413.967
-763991.807	-1035467.293	413.958
-763991.286	-1035473.889	413.988
-763991.149	-1035472.066	413.964
-763990.443	-1035471.556	413.962
-763991.738	-1035467.001	413.962
-763993.838	-1035471.608	413.984
-763995.125	-1035470.534	413.989
-763993.664	-1035469.152	413.973
-763992.643	-1035469.043	413.969
-763990.56	-1035473.583	413.982
-763994.494	-1035469.471	413.989
-763990.725	-1035474.812	413.995
-763990.161	-1035466.596	413.956
-763991.98	-1035472.19	413.967
-763991.657	-1035470.394	413.954
-763990.909	-1035466.845	413.96
-763992.679	-1035472.62	413.978
-763991.666	-1035471.876	413.962
-763993.6	-1035469.612	413.976
-763990.695	-1035471.192	413.959
-763992.142	-1035472.045	413.965
-763990.612	-1035466.504	413.964
-763990.336	-1035472.018	413.965
-763990.51	-1035473.88	413.984
-763991.808	-1035468.455	413.957
-763990.223	-1035471.696	413.965
-763990.41	-1035473.069	413.978
-763992.0	-1035471.241	413.961
-763990.962	-1035467.384	413.955
-763992.329	-1035472.424	413.972
-763991.725	-1035467.304	413.956
-763992.942	-1035470.247	413.977
-763991.232	-1035467.058	413.959
-763991.382	-1035471.346	413.955
-763992.924	-1035468.238	413.965
-763991.28	-1035467.738	413.954
-763993.507	-1035472.118	413.978
-763990.537	-1035466.463	413.962
-763993.215	-1035467.494	413.958
-763991.341	-1035466.879	413.962
-763991.223	-1035472.266	413.967
-763990.835	-1035470.626	413.954
-763990.028	-1035467.04	413.956
-763991.969	-1035470.934	413.958
-763992.604	-1035470.699	413.968
-763990.764	-1035466.36	413.964
-763991.325	-1035466.868	413.962
-763991.093	-1035467.152	413.959
-763992.446	-1035468.327	413.961
-763993.582	-1035467.999	413.979
-763992.09	-1035469.443	413.958
-763991.367	-1035472.827	413.972
-763990.68	-1035465.89	413.965
-763990.993	-1035470.365	413.955
-763992.646	-1035468.34	413.964
-763988.975	-1035469.188	413.961
-763989.72	-1035468.841	413.954
-763988.914	-1035468.764	413.959
-763987.291	-1035468.793	413.975
-763988.588	-1035468.321	413.96
-763988.51	-1035467.26	413.956
-763987.214	-1035468.352	413.979
-763989.168	-1035468.791	413.963
-763988.142	-1035467.817	413.972
-763988.283	-1035469.421	413.96
-763989.138	-1035469.746	413.959
-763988.216	-1035467.949	413.97
-763988.581	-1035467.593	413.959
-763987.696	-1035468.702	413.971
-763988.28	-1035468.085	413.966
-763987.613	-1035467.306	413.976
-763986.989	-1035467.706	413.986
-763987.221	-1035469.252	413.972
-763989.047	-1035470.032	413.957
-763987.94	-1035468.07	413.969
-763988.227	-1035468.522	413.964
-763988.473	-1035468.242	413.956
-763988.136	-1035467.608	413.97
-763989.339	-1035469.972	413.954
-763989.019	-1035469.533	413.962
-763989.15	-1035468.609	413.959
-763987.367	-1035469.492	413.971
-763988.208	-1035468.486	413.964
-763988.154	-1035467.096	413.968
-763987.529	-1035467.906	413.977
-763987.729	-1035469.144	413.963
-763988.615	-1035467.31	413.955
-763987.38	-1035467.288	413.975
-763987.287	-1035468.554	413.976
-763987.741	-1035467.366	413.972
-763988.648	-1035467.22	413.954
-763987.936	-1035469.638	413.97
-763987.071	-1035468.151	413.977
-763989.068	-1035467.929	413.954
-763989.898	-1035466.377	413.959
-763988.38	-1035469.67	413.96
-763986.926	-1035469.043	413.972
-763987.948	-1035466.782	413.966
-763989.559	-1035468.882	413.957
-763988.101	-1035468.296	413.966
-763988.632	-1035469.726	413.959
-763987.837	-1035469.847	413.963
-763987.878	-1035469.865	413.964
-763988.746	-1035467.925	413.958
-763987.938	-1035468.438	413.968
-763987.039	-1035469.378	413.969
-763989.364	-1035469.018	413.962
-763987.229	-1035468.192	413.979
-763987.087	-1035469.935	413.968
-763987.023	-1035467.553	413.982
-763986.907	-1035469.71	413.972
-763989.257	-1035469.535	413.957
-763988.605	-1035468.665	413.958
-763987.814	-1035468.967	413.964
-763987.953	-1035468.582	413.969
-763988.653	-1035469.976	413.957
-763987.568	-1035466.983	413.98
-763987.738	-1035466.86	413.972
-763988.236	-1035466.67	413.959
-763987.784	-1035467.361	413.97
-763988.569	-1035469.423	413.962
-763988.899	-1035468.586	413.959
-763988.634	-1035467.117	413.957
-763989.388	-1035468.98	413.964
-763988.759	-1035467.996	413.957
-763989.172	-1035469.467	413.958
-763989.11	-1035470.102	413.955
-763987.865	-1035468.839	413.966
-763989.44	-1035468.956	413.962
-763987.92	-1035466.812	413.966
-763987.886	-1035467.99	413.97
-763988.857	-1035469.691	413.959
-763987.165	-1035469.516	413.97
-763988.479	-1035469.291	413.962
-763987.425	-1035468.732	413.972
-763987.595	-1035469.184	413.967
-763989.198	-1035466.442	413.954
-763987.357	-1035468.5	413.971
-763988.225	-1035467.645	413.97
-763988.616	-1035469.23	413.96
-763987.709	-1035467.826	413.972
-763987.732	-1035467.27	413.972
-763987.279	-1035470.008	413.957
-763989.559	-1035468.853	413.958
-763987.975	-1035469.271	413.962
-763987.534	-1035467.27	413.975
-763989.582	-1035466.566	413.958
-763986.857	-1035468.452	413.98
-763988.234	-1035468.165	413.964
-763986.941	-1035468.6	413.979
-763989.253	-1035470.038	413.954
-763989.022	-1035469.002	413.957
-763989.655	-1035466.627	413.959
-763988.182	-1035468.455	413.964
-763987.059	-1035469.263	413.97
-763988.243	-1035468.857	413.964
-763988.094	-1035469.616	413.962
-763987.59	-1035467.631	413.972
-763987.216	-1035468.187	413.976
-763988.915	-1035468.914	413.958
-763989.36	-1035466.364	413.96
-763987.763	-1035467.164	413.975
-763987.417	-1035468.85	413.969
-763988.964	-1035468.578	413.961
-763987.854	-1035468.4	413.967
-763988.952	-1035467.947	413.954
-763989.22	-1035469.059	413.96
-763987.23	-1035469.908	413.962
-763988.18	-1035467.064	413.966
-763987.309	-1035468.291	413.974
-763989.609	-1035469.558	413.955
-763987.289	-1035470.157	413.96
-763987.241	-1035469.681	413.962
-763987.788	-1035467.638	413.972
-763987.517	-1035468.16	413.973
-763989.087	-1035469.167	413.959
-763989.325	-1035469.498	413.957
-763987.853	-1035469.19	413.962
-763987.789	-1035468.817	413.968
-763987.152	-1035468.983	413.974
-763987.176	-1035470.065	413.96
-763987.876	-1035469.274	413.964
-763988.024	-1035467.778	413.969
-763988.189	-1035467.135	413.965
-763987.233	-1035470.157	413.962
-763987.725	-1035468.994	413.965
-763989.132	-1035469.543	413.964
-763987.768	-1035468.864	413.966
-763987.849	-1035468.081	413.971
-763988.19	-1035467.928	413.969
-763988.211	-1035466.92	413.963
-763987.131	-1035469.738	413.966
-763988.265	-1035467.069	413.962
-763987.002	-1035469.033	413.972
-763988.448	-1035467.766	413.964
-763989.513	-1035468.641	413.956
-763987.749	-1035467.136	413.979
-763987.654	-1035468.008	413.974
-763989.015	-1035468.725	413.962
-763988.285	-1035468.198	413.962
-763987.357	-1035468.78	413.971
-763988.688	-1035468.378	413.959
-763986.962	-1035469.122	413.973
-763987.589	-1035467.701	413.973
-763989.565	-1035471.225	413.962
-763987.202	-1035467.203	413.977
-763987.956	-1035467.803	413.971
-763987.169	-1035469.414	413.972
-763987.676	-1035468.603	413.97
-763989.8	-1035469.356	413.954
-763988.612	-1035469.737	413.957
-763989.451	-1035469.554	413.955
-763988.608	-1035469.786	413.958
-763989.286	-1035471.367	413.962
-763988.711	-1035469.496	413.96
-763987.254	-1035470.098	413.957
-763988.206	-1035471.678	413.957
-763988.307	-1035467.412	413.964
-763987.648	-1035467.208	413.975
-763989.235	-1035471.514	413.961
-763988.215	-1035467.499	413.97
-763989.786	-1035471.793	413.969
-763987.73	-1035472.483	413.976
-763989.509	-1035470.836	413.959
-763989.115	-1035472.688	413.972
-763987.375	-1035471.889	413.972
-763988.074	-1035471.891	413.962
-763989.308	-1035472.431	413.969
-763987.547	-1035468.523	413.972
-763988.008	-1035472.352	413.972
-763989.51	-1035471.273	413.964
-763987.139	-1035470.534	413.966
-763989.065	-1035472.257	413.972
-763989.592	-1035472.682	413.972
-763987.076	-1035470.603	413.97
-763988.452	-1035472.906	413.982
-763988.6	-1035472.821	413.978
-763989.957	-1035473.258	413.98
-763987.158	-1035471.279	413.971
-763989.492	-1035472.705	413.973
-763987.244	-1035471.058	413.969
-763988.126	-1035471.238	413.956
-763987.176	-1035471.888	413.977
-763987.599	-1035470.925	413.962
-763988.823	-1035472.473	413.972
-763988.677	-1035470.174	413.957
-763987.416	-1035469.801	413.957
-763987.774	-1035471.53	413.966
-763987.922	-1035470.828	413.962
-763988.67	-1035472.15	413.97
-763988.693	-1035473.172	413.984
-763988.008	-1035472.57	413.978
-763989.368	-1035472.768	413.974
-763987.197	-1035470.959	413.97
-763989.928	-1035470.883	413.96
-763988.309	-1035470.353	413.961
-763987.98	-1035471.392	413.955
-763987.196	-1035470.844	413.967
-763987.786	-1035471.987	413.957
-763988.496	-1035472.976	413.983
-763989.122	-1035471.449	413.955
-763989.515	-1035473.967	413.989
-763988.871	-1035473.693	413.979
-763987.525	-1035470.305	413.958
-763987.008	-1035470.281	413.969
-763988.166	-1035472.385	413.972
-763987.979	-1035472.013	413.964
-763988.522	-1035470.23	413.96
-763989.818	-1035471.778	413.968
-763989.569	-1035472.198	413.965
-763989.679	-1035472.522	413.97
-763988.0	-1035471.416	413.955
-763988.671	-1035472.475	413.972
-763988.005	-1035470.642	413.958
-763987.684	-1035470.306	413.96
-763989.984	-1035471.095	413.961
-763989.326	-1035472.164	413.962
-763988.7	-1035470.392	413.959
-763989.146	-1035472.346	413.971
-763989.698	-1035471.403	413.962
-763988.619	-1035472.972	413.982
-763988.176	-1035472.446	413.974
-763989.506	-1035473.349	413.979
-763989.943	-1035470.765	413.959
-763989.662	-1035470.547	413.956
-763986.968	-1035470.473	413.971
-763988.338	-1035470.398	413.962
-763987.877	-1035471.834	413.954
-763987.267	-1035471.305	413.968
-763989.521	-1035473.61	413.982
-763988.408	-1035472.76	413.979
-763988.467	-1035473.17	413.982
-763987.341	-1035471.857	413.973
-763988.76	-1035471.798	413.96
-763989.877	-1035471.079	413.962
-763988.785	-1035472.64	413.973
-763987.948	-1035472.73	413.975
-763988.352	-1035473.188	413.958
-763987.248	-1035471.891	413.976
-763989.942	-1035474.197	413.987
-763988.795	-1035473.059	413.983
-763988.764	-1035470.565	413.958
-763988.569	-1035473.394	413.972
-763989.902	-1035473.589	413.978
-763987.06	-1035471.18	413.974
-763987.267	-1035471.703	413.972
-763989.674	-1035470.528	413.956
-763989.116	-1035471.587	413.956
-763988.435	-1035471.956	413.969
-763989.985	-1035470.648	413.958
-763989.529	-1035472.719	413.973
-763988.484	-1035473.06	413.982
-763987.025	-1035471.816	413.972
-763987.74	-1035472.398	413.974
-763989.083	-1035472.115	413.968
-763987.848	-1035471.196	413.958
-763989.147	-1035471.776	413.954
-763988.826	-1035473.44	413.987
-763989.125	-1035470.996	413.954
-763989.03	-1035473.264	413.983
-763987.447	-1035471.97	413.967
-763988.662	-1035472.792	413.976
-763987.85	-1035470.833	413.959
-763989.204	-1035471.836	413.954
-763989.214	-1035471.618	413.956
-763989.588	-1035470.934	413.958
-763987.844	-1035470.667	413.96
-763987.825	-1035472.413	413.974
-763989.819	-1035471.318	413.962
-763989.516	-1035471.603	413.966
-763988.428	-1035470.494	413.961
-763988.931	-1035472.212	413.97
-763989.946	-1035471.889	413.967
-763989.528	-1035470.99	413.958
-763987.586	-1035470.484	413.959
-763988.078	-1035471.272	413.955
-763987.468	-1035471.37	413.966
-763988.839	-1035472.663	413.975
-763987.977	-1035471.26	413.957
-763988.001	-1035472.121	413.967
-763987.196	-1035471.964	413.97
-763989.619	-1035473.878	413.987
-763987.571	-1035471.785	413.968
-763986.925	-1035471.004	413.972
-763988.158	-1035471.196	413.954
-763988.607	-1035472.006	413.969
-763989.277	-1035472.919	413.976
-763987.667	-1035471.599	413.969
-763988.798	-1035471.5	413.954
-763989.717	-1035472.138	413.965
-763987.359	-1035471.918	413.97
-763987.96	-1035471.417	413.954
-763988.534	-1035470.63	413.958
-763989.364	-1035471.424	413.965
-763987.443	-1035470.945	413.965
-763989.791	-1035470.551	413.958
-763989.164	-1035473.77	413.99
-763987.293	-1035471.171	413.969
-763989.492	-1035473.228	413.977
-763989.801	-1035472.895	413.974
-763988.94	-1035472.113	413.971
-763987.964	-1035472.4	413.976
-763989.52	-1035472.504	413.969
-763982.548	-1035465.052	413.978
-763983.851	-1035465.878	413.973
-763984.902	-1035461.348	413.983
-763981.888	-1035464.242	413.981
-763982.908	-1035464.778	413.977
-763982.53	-1035465.134	413.978
-763985.208	-1035466.632	413.977
-763985.866	-1035465.208	413.975
-763986.218	-1035463.929	413.974
-763986.24	-1035465.45	413.972
-763986.532	-1035463.898	413.972
-763984.26	-1035466.527	413.979
-763985.783	-1035465.918	413.982
-763984.856	-1035466.921	413.976
-763984.572	-1035467.043	413.98
-763984.597	-1035466.874	413.984
-763983.913	-1035466.275	413.983
-763984.617	-1035466.69	413.974
-763986.376	-1035468.975	413.971
-763985.012	-1035469.62	413.988
-763986.18	-1035468.864	413.974
-763985.107	-1035469.453	413.984
-763986.364	-1035468.549	413.982
-763985.685	-1035468.933	413.979
-763986.457	-1035469.115	413.974
-763986.152	-1035469.389	413.98
-763985.694	-1035468.804	413.978
-763985.393	-1035469.401	413.981
-763985.801	-1035469.547	413.976
-763985.054	-1035469.712	413.992
-763986.706	-1035469.246	413.969
-763986.678	-1035468.823	413.974
-763986.167	-1035469.334	413.978
-763985.176	-1035469.682	413.985
-763986.599	-1035467.928	413.981
-763985.701	-1035469.0	413.981
-763986.571	-1035468.772	413.976
-763985.417	-1035469.148	413.986
-763986.516	-1035469.63	413.97
-763986.462	-1035469.2	413.971
-763986.134	-1035469.521	413.978
-763986.753	-1035468.181	413.979
-763986.591	-1035469.454	413.971
-763986.601	-1035469.348	413.972
-763986.685	-1035469.618	413.971
-763986.397	-1035469.341	413.974
-763986.81	-1035468.704	413.983
-763985.258	-1035469.551	413.982
-763986.34	-1035469.133	413.973
-763986.278	-1035468.45	413.982
-763985.202	-1035469.679	413.988
-763986.695	-1035469.367	413.967
-763986.641	-1035470.353	413.972
-763985.831	-1035469.64	413.978
-763986.353	-1035468.932	413.97
-763986.254	-1035470.348	413.972
-763986.203	-1035468.981	413.973
-763986.823	-1035469.861	413.97
-763986.453	-1035470.723	413.972
-763985.259	-1035470.055	413.982
-763986.841	-1035469.58	413.969
-763985.44	-1035469.555	413.98
-763986.49	-1035469.801	413.972
-763986.21	-1035470.207	413.971
-763986.221	-1035470.134	413.969
-763985.528	-1035470.344	413.98
-763985.487	-1035470.015	413.981
-763986.779	-1035470.963	413.971
-763986.668	-1035469.96	413.976
-763986.582	-1035471.021	413.971
-763986.708	-1035469.942	413.975
-763986.642	-1035469.862	413.975
-763986.172	-1035470.565	413.973
-763985.903	-1035470.524	413.984
-763986.748	-1035470.163	413.972
-763986.9	-1035470.678	413.97
-763985.477	-1035469.986	413.982
-763986.928	-1035471.614	413.981
-763986.7	-1035469.785	413.973
-763986.43	-1035470.466	413.972
-763986.814	-1035470.706	413.969
-763985.843	-1035470.334	413.981
-763986.756	-1035470.579	413.968
-763985.638	-1035470.008	413.98
-763986.847	-1035470.457	413.969
-763986.521	-1035470.089	413.975
-763986.205	-1035470.061	413.973
-763985.985	-1035470.505	413.98
-763985.454	-1035470.234	413.983
-763986.847	-1035471.487	413.979
-763985.389	-1035469.943	413.984
-763985.629	-1035470.402	413.985
-763985.726	-1035469.995	413.979
-763985.832	-1035470.086	413.979
-763985.321	-1035470.033	413.989
-763985.929	-1035470.014	413.974
-763986.116	-1035470.501	413.976
-763985.417	-1035470.146	413.986
-763986.74	-1035469.822	413.973
-763985.783	-1035470.34	413.984
-763986.655	-1035470.242	413.971
-763986.864	-1035469.976	413.973
-763986.48	-1035470.088	413.973
-763985.896	-1035470.218	413.977
-763985.995	-1035470.812	413.975
-763991.005	-1035473.668	413.985
-763994.311	-1035468.587	413.978
-763991.819	-1035473.888	413.966
-763992.888	-1035467.499	413.958
-763992.632	-1035467.833	413.959
-763990.071	-1035466.385	413.962
-763991.175	-1035466.704	413.964
-763990.137	-1035471.179	413.962
-763992.615	-1035466.928	413.959
-763990.66	-1035470.699	413.955
-763992.431	-1035470.429	413.966
-763992.458	-1035471.059	413.965
-763990.9	-1035466.314	413.965
-763991.117	-1035467.783	413.955
-763991.931	-1035466.462	413.969
-763990.954	-1035466.557	413.964
-763991.042	-1035471.2	413.957
-763992.025	-1035471.6	413.963
-763990.77	-1035467.295	413.956
-763992.164	-1035470.239	413.956
-763990.2	-1035470.539	413.957
-763990.563	-1035470.435	413.954
-763992.345	-1035466.649	413.96
-763993.701	-1035469.321	413.976
-763991.268	-1035467.718	413.956
-763992.142	-1035471.198	413.962
-763992.513	-1035468.514	413.963
-763991.526	-1035469.923	413.954
-763993.715	-1035468.769	413.976
-763990.99	-1035471.298	413.959
-763990.374	-1035466.816	413.959
-763991.547	-1035466.031	413.971
-763991.048	-1035470.511	413.954
-763991.969	-1035469.096	413.963
-763991.568	-1035469.956	413.954
-763990.749	-1035466.297	413.964
-763989.841	-1035466.25	413.962
-763993.789	-1035468.212	413.983
-763990.652	-1035467.156	413.957
-763993.886	-1035469.177	413.978
-763991.805	-1035471.913	413.964
-763991.969	-1035471.706	413.962
-763991.51	-1035471.356	413.955
-763993.525	-1035468.814	413.973
-763990.354	-1035470.802	413.959
-763991.525	-1035465.808	413.967
-763990.57	-1035467.169	413.957
-763990.146	-1035466.043	413.966
-763991.28	-1035466.339	413.968
-763993.383	-1035468.094	413.967
-763993.22	-1035468.636	413.969
-763990.751	-1035467.359	413.956
-763993.601	-1035468.081	413.977
-763991.785	-1035466.996	413.962
-763990.223	-1035466.571	413.959
-763990.984	-1035467.306	413.956
-763991.627	-1035466.835	413.965
-763990.164	-1035466.611	413.956
-763990.71	-1035467.03	413.958
-763990.038	-1035466.868	413.954
-763990.307	-1035466.747	413.96
-763990.856	-1035467.09	413.961
-763991.237	-1035471.931	413.964
-763992.321	-1035471.027	413.964
-763989.931	-1035466.877	413.954
-763990.336	-1035466.871	413.957
-763992.014	-1035469.29	413.96
-763990.626	-1035471.894	413.962
-763990.777	-1035466.532	413.962
-763990.147	-1035471.664	413.965
-763991.143	-1035466.002	413.967
-763993.495	-1035471.616	413.981
-763990.666	-1035470.428	413.956
-763992.093	-1035471.83	413.964
-763990.861	-1035471.06	413.956
-763991.296	-1035467.288	413.958
-763991.613	-1035467.007	413.962
-763992.51	-1035467.775	413.957
-763990.446	-1035470.549	413.958
-763994.16	-1035470.054	413.984
-763993.31	-1035468.683	413.97
-763990.126	-1035471.272	413.963
-763992.974	-1035469.46	413.972
-763992.495	-1035469.712	413.971
-763991.184	-1035467.101	413.96
-763991.868	-1035467.171	413.961
-763991.19	-1035466.405	413.967
-763991.717	-1035467.127	413.96
-763991.822	-1035466.324	413.972
-763992.199	-1035469.99	413.956
-763990.993	-1035467.509	413.954
-763990.447	-1035471.577	413.961
-763991.957	-1035468.512	413.959
-763994.757	-1035470.624	413.995
-763991.371	-1035470.298	413.954
-763989.882	-1035466.018	413.967
-763992.545	-1035469.153	413.97
-763991.906	-1035467.295	413.958
-763992.175	-1035466.853	413.961
-763990.54	-1035466.629	413.963
-763990.434	-1035466.527	413.962
-763992.07	-1035470.804	413.959
-763990.405	-1035471.189	413.964
-763991.679	-1035468.673	413.954
-763993.162	-1035470.024	413.982
-763990.838	-1035471.898	413.965
-763990.885	-1035465.666	413.968
-763992.136	-1035469.794	413.957
-763994.691	-1035470.388	413.99
-763990.139	-1035471.538	413.963
-763990.898	-1035466.919	413.961
-763990.527	-1035466.413	413.964
-763994.207	-1035468.95	413.983
-763991.714	-1035470.702	413.955
-763989.104	-1035466.313	413.956
-763991.642	-1035466.291	413.969
-763990.627	-1035467.287	413.956
-763991.597	-1035466.853	413.964
-763990.522	-1035466.952	413.959
-763990.998	-1035466.629	413.965
-763991.149	-1035467.16	413.96
-763991.508	-1035467.236	413.958
-763990.071	-1035466.234	413.963
-763990.868	-1035471.408	413.962
-763990.692	-1035471.65	413.963
-763990.266	-1035467.139	413.955
-763992.328	-1035471.068	413.964
-763991.827	-1035468.372	413.954
-763990.203	-1035470.505	413.957
-763990.715	-1035466.233	413.962
-763993.237	-1035467.511	413.957
-763991.987	-1035466.363	413.972
-763991.829	-1035471.198	413.96
-763991.741	-1035469.1	413.954
-763993.509	-1035467.889	413.979
-763992.096	-1035468.142	413.954
-763992.657	-1035467.218	413.955
-763990.084	-1035466.835	413.955
-763991.074	-1035466.463	413.966
-763990.888	-1035466.379	413.964
-763992.003	-1035469.621	413.956
-763993.544	-1035468.881	413.974
-763991.949	-1035466.474	413.968
-763991.729	-1035468.576	413.956
-763990.529	-1035471.014	413.962
-763992.157	-1035470.757	413.959
-763991.49	-1035466.138	413.968
-763990.33	-1035471.579	413.964
-763991.083	-1035470.89	413.954
-763990.994	-1035471.908	413.965
-763991.524	-1035470.494	413.956
-763990.874	-1035466.438	413.963
-763991.853	-1035470.419	413.957
-763991.662	-1035469.908	413.956
-763991.869	-1035470.2	413.956
-763992.33	-1035467.024	413.955
-763990.826	-1035466.522	413.962
-763991.089	-1035470.728	413.954
-763990.129	-1035466.171	413.964
-763991.41	-1035466.532	413.968
-763990.063	-1035470.802	413.96
-763992.536	-1035471.248	413.966
-763991.547	-1035472.048	413.966
-763989.436	-1035466.267	413.96
-763990.39	-1035470.859	413.959
-763993.787	-1035468.24	413.982
-763990.719	-1035470.549	413.954
-763990.55	-1035470.971	413.959
-763993.747	-1035469.15	413.974
-763992.54	-1035468.415	413.963
-763992.013	-1035470.304	413.955
-763990.28	-1035467.164	413.956
-763990.474	-1035466.871	413.958
-763989.963	-1035466.595	413.956
-763991.073	-1035466.128	413.965
-763990.176	-1035466.782	413.954
-763994.21	-1035468.9	413.982
-763994.492	-1035468.749	413.96
-763990.682	-1035467.102	413.958
-763989.234	-1035466.29	413.957
-763991.94	-1035467.385	413.956
-763990.63	-1035471.799	413.962
-763990.558	-1035465.815	413.965
-763991.114	-1035467.304	413.955
-763990.167	-1035466.784	413.954
-763990.121	-1035471.567	413.965
-763990.618	-1035467.354	413.955
-763993.026	-1035468.711	413.967
-763993.063	-1035467.538	413.969
-763992.452	-1035470.295	413.966
-763992.009	-1035466.314	413.97
-763992.688	-1035469.669	413.975
-763992.624	-1035470.765	413.966
-763991.866	-1035470.754	413.957
-763990.201	-1035466.293	413.964
-763993.855	-1035468.979	413.977
-763991.064	-1035471.46	413.96
-763991.062	-1035471.196	413.956
-763993.215	-1035468.687	413.969
-763991.232	-1035471.515	413.961
-763990.668	-1035471.045	413.958
-763991.891	-1035471.263	413.96
-763988.409	-1035468.157	413.963
-763987.783	-1035466.851	413.971
-763989.001	-1035469.885	413.958
-763988.483	-1035466.79	413.962
-763987.375	-1035469.288	413.971
-763988.208	-1035468.973	413.965
-763987.208	-1035469.054	413.973
-763988.16	-1035468.592	413.966
-763989.551	-1035471.969	413.965
-763987.213	-1035469.739	413.962
-763987.696	-1035469.357	413.97
-763989.281	-1035470.661	413.954
-763987.247	-1035468.07	413.978
-763989.283	-1035469.348	413.956
-763988.496	-1035469.622	413.96
-763987.1	-1035467.968	413.981
-763988.013	-1035467.595	413.969
-763988.755	-1035470.503	413.959
-763987.25	-1035468.694	413.971
-763988.092	-1035467.956	413.968
-763987.118	-1035467.852	413.985
-763987.815	-1035467.155	413.972
-763988.394	-1035466.625	413.96
-763987.386	-1035468.18	413.977
-763989.339	-1035472.426	413.97
-763987.292	-1035469.595	413.971
-763988.195	-1035468.526	413.964
-763988.384	-1035468.412	413.96
-763987.261	-1035468.288	413.974
-763988.529	-1035469.013	413.963
-763987.036	-1035469.11	413.973
-763988.095	-1035468.321	413.968
-763987.674	-1035468.693	413.967
-763988.809	-1035467.665	413.956
-763988.108	-1035472.49	413.975
-763988.26	-1035467.868	413.971
-763987.043	-1035469.552	413.97
-763989.849	-1035466.498	413.958
-763989.361	-1035470.651	413.955
